-0.7469637 -4.82074 -1.844501
-0.745009 -4.820742 -1.855957
-0.7430371 -4.820744 -1.867476
-0.7410479 -4.820745 -1.879051
-0.7390411 -4.820747 -1.89069
-0.7370164 -4.820749 -1.90239
-0.7349737 -4.820751 -1.914152
-0.7329131 -4.820753 -1.925978
-0.730834 -4.820755 -1.937868
-0.7287363 -4.820757 -1.949823
-0.7266199 -4.820759 -1.961843
-0.7244849 -4.820761 -1.973928
-0.7223304 -4.820763 -1.986082
-0.7201569 -4.820765 -1.998304
-0.7179638 -4.820766 -2.010593
-0.7157509 -4.820768 -2.022953
-0.7135183 -4.82077 -2.035383
-0.7112653 -4.820772 -2.047884
-0.7089921 -4.820776 -2.060455
-0.7066983 -4.820778 -2.073101
-0.7043839 -4.82078 -2.085821
-0.7020483 -4.820782 -2.098614
-0.6996914 -4.820784 -2.111483
-0.6973131 -4.820786 -2.12443
-0.694913 -4.820787 -2.137451
-0.6924911 -4.820791 -2.150553
-0.6900471 -4.820793 -2.163733
-0.6875804 -4.820795 -2.176992
-0.6677809 -4.820961 2.180964
-0.6703125 -4.820959 2.167677
-0.6728209 -4.820955 2.154472
-0.6753064 -4.820951 2.141348
-0.6777696 -4.82095 2.128302
-0.6802104 -4.820946 2.115332
-0.6826291 -4.820942 2.102438
-0.6850262 -4.82094 2.089621
-0.6874015 -4.820936 2.07688
-0.6897554 -4.820934 2.064211
-0.6920883 -4.82093 2.051617
-0.6944004 -4.820929 2.039093
-0.6966917 -4.820925 2.026642
-0.6989626 -4.820923 2.014261
-0.7012132 -4.820919 2.001949
-0.7034438 -4.820915 1.989708
-0.7056547 -4.820913 1.977533
-0.7078458 -4.820911 1.965425
-0.7100177 -4.820908 1.953384
-0.7121703 -4.820906 1.94141
-0.7143039 -4.820902 1.929501
-0.7164186 -4.8209 1.917654
-0.7185147 -4.820896 1.905872
-0.7205924 -4.820894 1.894154
-0.7226518 -4.82089 1.882496
-0.7246932 -4.820889 1.870901
-0.7267166 -4.820887 1.859365
-0.7287223 -4.820883 1.847889
-0.7307108 -4.820881 1.836473
-0.7326816 -4.820879 1.825115
-0.7346352 -4.820875 1.813816
-0.7365718 -4.820873 1.802574
-0.7384916 -4.820871 1.791388
-0.7403947 -4.820868 1.780258
-0.7422812 -4.820866 1.769184
-0.7441514 -4.820864 1.758165
-0.7460052 -4.820862 1.7472
-0.747843 -4.820858 1.736288
-0.749665 -4.820856 1.72543
-0.7514712 -4.820854 1.714622
-0.7532617 -4.820852 1.703869
-0.7550367 -4.820848 1.693165
-0.7567964 -4.820847 1.682512
-0.7585407 -4.820845 1.671909
-0.7602702 -4.820843 1.661358
-0.7619848 -4.820841 1.650854
-0.7636845 -4.820837 1.640398
-0.7653697 -4.820835 1.62999
-0.7670402 -4.820833 1.619631
-0.7686963 -4.820831 1.609318
-0.7703382 -4.820829 1.599051
-0.771966 -4.820827 1.588831
-0.7735798 -4.820826 1.578655
-0.7751796 -4.820824 1.568523
-0.7767659 -4.82082 1.558437
-0.7783382 -4.820818 1.548397
-0.779897 -4.820816 1.538397
-0.7814426 -4.820814 1.528442
-0.7829749 -4.820812 1.51853
-0.7844939 -4.82081 1.508657
-0.7859999 -4.820808 1.498829
-0.7874929 -4.820807 1.48904
-0.7889731 -4.820805 1.479294
-0.7904404 -4.820803 1.469587
-0.7918952 -4.820801 1.459919
-0.7933375 -4.820799 1.450293
-0.7947673 -4.820797 1.440702
-0.7961848 -4.820795 1.431154
-0.79759 -4.820793 1.421642
-0.7989831 -4.820791 1.412169
-0.8003643 -4.820789 1.402731
-0.8017333 -4.820787 1.393332
-0.8030906 -4.820786 1.38397
-0.8044362 -4.820784 1.374643
-0.8057701 -4.820782 1.365353
-0.8070924 -4.82078 1.356096
-0.8084034 -4.820778 1.346878
-0.8097028 -4.820778 1.337692
-0.810991 -4.820776 1.328541
-0.812268 -4.820774 1.319424
-0.813534 -4.820772 1.310341
-0.8147887 -4.82077 1.301291
-0.8160326 -4.820768 1.292273
-0.8172656 -4.820766 1.283289
-0.8184879 -4.820765 1.274336
-0.8196995 -4.820763 1.265417
-0.8209004 -4.820763 1.256529
-0.8220908 -4.820761 1.247671
-0.8232707 -4.820759 1.238844
-0.8244401 -4.820757 1.230047
-0.8255995 -4.820755 1.221283
-0.8267483 -4.820753 1.212547
-0.8278871 -4.820753 1.20384
-0.8290157 -4.820751 1.195164
-0.8301345 -4.820749 1.186516
-0.8312431 -4.820747 1.177896
-0.8323419 -4.820745 1.169306
-0.8334309 -4.820745 1.160744
-0.8345103 -4.820744 1.152208
-0.8355798 -4.820742 1.143702
-0.8366398 -4.82074 1.135221
-0.8376901 -4.82074 1.12677
-0.838731 -4.820738 1.118343
-0.8397624 -4.820736 1.109943
-0.8407847 -4.820734 1.101568
-0.8417975 -4.820734 1.093222
-0.8428012 -4.820732 1.084898
-0.8437956 -4.82073 1.076601
-0.8447809 -4.82073 1.068329
-0.8457572 -4.820728 1.060081
-0.8467246 -4.820726 1.051859
-0.8476829 -4.820724 1.043659
-0.8486325 -4.820724 1.035484
-0.8495731 -4.820723 1.027334
-0.8505051 -4.820721 1.019205
-0.8514282 -4.820721 1.011101
-0.8523428 -4.820719 1.003019
-0.8532486 -4.820717 0.9949608
-0.8541461 -4.820717 0.9869232
-0.855035 -4.820715 0.9789085
-0.8559154 -4.820713 0.9709167
-0.8567874 -4.820713 0.9629459
-0.8576512 -4.820711 0.9549961
-0.8585065 -4.820709 0.9470692
-0.8593537 -4.820709 0.9391613
-0.8601927 -4.820707 0.9312763
-0.8610235 -4.820707 0.9234104
-0.8618461 -4.820705 0.9155655
-0.8626609 -4.820704 0.9077396
-0.8634676 -4.820704 0.8999348
-0.8642663 -4.820702 0.892149
-0.8650571 -4.820702 0.8843822
-0.8658398 -4.8207 0.8766365
-0.8666109 -4.820713 0.8689137
-0.866617 -4.823336 0.8622417
-0.866623 -4.825937 0.8555603
-0.866629 -4.82852 0.8488712
-0.866635 -4.831081 0.8421745
-0.866641 -4.833624 0.8354702
-0.866647 -4.836143 0.8287601
-0.866653 -4.838644 0.8220406
-0.8666589 -4.841124 0.8153133
-0.8666648 -4.843584 0.8085785
-0.8666707 -4.846022 0.8018379
-0.8666766 -4.84844 0.7950878
-0.8666824 -4.850838 0.788332
-0.8666883 -4.853216 0.7815685
-0.8666941 -4.855572 0.7747974
-0.8666999 -4.857908 0.7680206
-0.8667057 -4.860224 0.7612362
-0.8667114 -4.862518 0.7544441
-0.8667172 -4.864792 0.7476444
-0.8667229 -4.867044 0.740839
-0.8667286 -4.869276 0.7340279
-0.8667343 -4.871489 0.7272091
-0.8667399 -4.873678 0.7203827
-0.8667456 -4.875849 0.7135506
-0.8667512 -4.877998 0.7067127
-0.8667568 -4.880127 0.6998672
-0.8667624 -4.882235 0.6930161
-0.8667679 -4.884319 0.6861572
-0.8667735 -4.886387 0.6792946
-0.866779 -4.888432 0.6724243
-0.8667845 -4.890455 0.6655483
-0.86679 -4.892458 0.6586647
-0.8667954 -4.89444 0.6517773
-0.8668009 -4.8964 0.6448822
-0.8668063 -4.89834 0.6379814
-0.8668117 -4.900259 0.6310749
-0.8668171 -4.902157 0.6241646
-0.8668224 -4.904034 0.6172466
-0.8668278 -4.90589 0.610323
-0.8668331 -4.907722 0.6033955
-0.8668384 -4.909536 0.5964603
-0.8668436 -4.911329 0.5895214
-0.8668489 -4.913101 0.5825768
-0.8668541 -4.91485 0.5756264
-0.8668594 -4.916578 0.5686703
-0.8668646 -4.918287 0.5617104
-0.8668697 -4.919973 0.5547447
-0.8668749 -4.921638 0.5477734
-0.86688 -4.923283 0.5407982
-0.8668851 -4.924904 0.5338173
-0.8668902 -4.926506 0.5268307
-0.8668953 -4.928087 0.5198402
-0.8669003 -4.929646 0.512846
-0.8669053 -4.931183 0.505846
-0.8669103 -4.932699 0.4988422
-0.8669153 -4.934195 0.4918327
-0.8669202 -4.935667 0.4848194
-0.8669252 -4.937119 0.4778023
-0.8669301 -4.938551 0.4707794
-0.866935 -4.93996 0.4637527
-0.8669399 -4.941347 0.4567223
-0.8669447 -4.942715 0.449688
-0.8669496 -4.944059 0.4426498
-0.8669544 -4.945383 0.435606
-0.8669592 -4.946686 0.4285603
-0.8669639 -4.947968 0.4215107
-0.8669686 -4.949226 0.4144554
-0.8669733 -4.950464 0.4073982
-0.866978 -4.951679 0.4003353
-0.8669828 -4.952875 0.3932705
-0.8669874 -4.954048 0.3862019
-0.866992 -4.9552 0.3791294
-0.8669966 -4.956331 0.3720531
-0.8670012 -4.957439 0.3649731
-0.8670058 -4.958527 0.3578911
-0.8670103 -4.959593 0.3508053
-0.8670148 -4.960636 0.3437176
-0.8670194 -4.961658 0.3366241
-0.8670238 -4.96266 0.3295288
-0.8670282 -4.963638 0.3224316
-0.8670327 -4.964596 0.3153305
-0.8670371 -4.965532 0.3082275
-0.8670415 -4.966448 0.3011208
-0.8670458 -4.96734 0.2940121
-0.8670502 -4.968212 0.2868996
-0.8670545 -4.969061 0.2797852
-0.8670588 -4.969889 0.2726688
-0.867063 -4.970695 0.2655487
-0.8670673 -4.971479 0.2584286
-0.8670716 -4.972242 0.2513046
-0.8670757 -4.972984 0.2441769
-0.8670799 -4.973703 0.2370491
-0.8670841 -4.974401 0.2299194
-0.8670882 -4.975077 0.2227859
-0.8670923 -4.975731 0.2156506
-0.8670964 -4.976364 0.2085152
-0.8671005 -4.976974 0.201376
-0.8671045 -4.977564 0.1942368
-0.8671085 -4.978132 0.1870956
-0.8671125 -4.978678 0.1799507
-0.8671165 -4.979202 0.1728058
-0.8671204 -4.979704 0.1656609
-0.8671244 -4.980185 0.1585121
-0.8671283 -4.980644 0.1513634
-0.8671321 -4.981081 0.1442127
-0.867136 -4.981495 0.1370602
-0.8671398 -4.98189 0.1299076
-0.8671436 -4.982262 0.1227531
-0.8671474 -4.982611 0.1155968
-0.8671512 -4.982939 0.1084404
-0.8671549 -4.983246 0.101284
-0.8671587 -4.98353 0.09412575
-0.8671623 -4.983793 0.08696747
-0.867166 -4.984034 0.07980728
-0.8671696 -4.984253 0.07264709
-0.8671733 -4.984451 0.06548691
-0.8671768 -4.984627 0.05832481
-0.8671804 -4.984781 0.05116272
-0.867184 -4.984913 0.04400063
-0.8671875 -4.985023 0.03683853
-0.867191 -4.985113 0.02967644
-0.8671945 -4.985178 0.02251244
-0.8671979 -4.985224 0.01535034
-0.8672013 -4.985247 0.00818634
-0.8672047 -4.985249 0.001024246
-0.8672081 -4.985228 -0.006139755
-0.8672115 -4.985186 -0.01330185
-0.8672148 -4.985123 -0.02046585
-0.8672181 -4.985037 -0.02762794
-0.8672214 -4.98493 -0.03479004
-0.8672246 -4.9848 -0.04195213
-0.8672279 -4.984648 -0.04911423
-0.8672311 -4.984476 -0.05627441
-0.8672343 -4.984282 -0.0634346
-0.8672374 -4.984064 -0.07059479
-0.8672405 -4.983828 -0.07775307
-0.8672436 -4.983566 -0.08491135
-0.8672467 -4.983286 -0.09206772
-0.8672498 -4.982981 -0.09922409
-0.8672529 -4.982656 -0.1063786
-0.8672559 -4.982309 -0.113533
-0.8672588 -4.981941 -0.1206875
-0.8672618 -4.98155 -0.1278381
-0.8672647 -4.981138 -0.1349888
-0.8672677 -4.980703 -0.1421375
-0.8672706 -4.980247 -0.1492863
-0.8672734 -4.979771 -0.1564331
-0.8672763 -4.979271 -0.163578
-0.8672791 -4.97875 -0.1707211
-0.8672819 -4.978209 -0.1778622
-0.8672847 -4.977644 -0.1850033
-0.8672874 -4.977057 -0.1921406
-0.8672901 -4.97645 -0.1992779
-0.8672928 -4.975821 -0.2064114
-0.8672954 -4.975168 -0.2135448
-0.8672981 -4.974497 -0.2206745
-0.8673007 -4.973801 -0.2278023
-0.8673033 -4.973085 -0.23493
-0.8673059 -4.972347 -0.242054
-0.8673084 -4.971588 -0.2491741
-0.8673109 -4.970806 -0.2562943
-0.8673134 -4.970003 -0.2634106
-0.8673159 -4.969179 -0.270525
-0.8673183 -4.968334 -0.2776375
-0.8673208 -4.967466 -0.2847462
-0.8673232 -4.966576 -0.291853
-0.8673255 -4.965666 -0.2989559
-0.8673279 -4.964733 -0.306057
-0.8673302 -4.963779 -0.3131542
-0.8673325 -4.962803 -0.3202496
-0.8673347 -4.961805 -0.3273411
-0.867337 -4.960787 -0.3344307
-0.8673392 -4.959745 -0.3415165
-0.8673414 -4.958685 -0.3485985
-0.8673435 -4.957602 -0.3556786
-0.8673457 -4.956495 -0.3627529
-0.8673478 -4.95537 -0.3698254
-0.8673499 -4.954222 -0.376894
-0.8673519 -4.953053 -0.3839607
-0.867354 -4.95186 -0.3910217
-0.867356 -4.950649 -0.3980808
-0.867358 -4.949415 -0.4051342
-0.8673599 -4.948158 -0.4121857
-0.8673618 -4.946882 -0.4192314
-0.8673638 -4.945585 -0.4262753
-0.8673657 -4.944265 -0.4333134
-0.8673675 -4.942924 -0.4403477
-0.8673694 -4.941561 -0.4473782
-0.8673711 -4.940178 -0.4544048
-0.8673729 -4.938772 -0.4614258
-0.8673747 -4.937346 -0.4684448
-0.8673764 -4.935898 -0.4754581
-0.8673781 -4.934429 -0.4824657
-0.8673798 -4.93294 -0.4894714
-0.8673815 -4.931427 -0.4964714
-0.8673831 -4.929893 -0.5034657
-0.8673847 -4.928339 -0.5104561
-0.8673863 -4.926765 -0.5174427
-0.8673878 -4.925167 -0.5244236
-0.8673893 -4.92355 -0.5313988
-0.8673908 -4.921911 -0.5383701
-0.8673923 -4.92025 -0.5453358
-0.8673937 -4.91857 -0.5522957
-0.8673952 -4.916866 -0.5592518
-0.8673966 -4.915142 -0.5662022
-0.867398 -4.913399 -0.5731468
-0.8673993 -4.911633 -0.5800877
-0.8674006 -4.909845 -0.5870228
-0.8674019 -4.908037 -0.5939503
-0.8674031 -4.906206 -0.6008739
-0.8674044 -4.904356 -0.6077919
-0.8674056 -4.902485 -0.6147041
-0.8674068 -4.900593 -0.6216106
-0.867408 -4.89868 -0.6285114
-0.8674091 -4.896746 -0.6354046
-0.8674102 -4.894791 -0.6422939
-0.8674113 -4.892815 -0.6491776
-0.8674123 -4.890818 -0.6560535
-0.8674134 -4.8888 -0.6629238
-0.8674144 -4.886761 -0.6697884
-0.8674154 -4.884701 -0.6766472
-0.8674163 -4.88262 -0.6834984
-0.8674173 -4.880518 -0.6903439
-0.8674182 -4.878397 -0.6971836
-0.8674191 -4.876253 -0.7040157
-0.8674199 -4.87409 -0.7108421
-0.8674207 -4.871904 -0.7176609
-0.8674215 -4.869701 -0.724474
-0.8674223 -4.867474 -0.7312794
-0.867423 -4.865227 -0.7380791
-0.8674238 -4.862961 -0.7448711
-0.8674244 -4.860672 -0.7516556
-0.8674251 -4.858364 -0.7584343
-0.8674257 -4.856035 -0.7652054
-0.8674263 -4.853685 -0.7719707
-0.8674269 -4.851315 -0.7787266
-0.8674275 -4.848925 -0.7854767
-0.8674281 -4.846514 -0.7922192
-0.8674285 -4.844082 -0.798954
-0.867429 -4.841629 -0.8056812
-0.8674295 -4.839157 -0.8124027
-0.8674299 -4.836662 -0.8191147
-0.8674303 -4.83415 -0.825819
-0.8674307 -4.831615 -0.8325176
-0.8674311 -4.829062 -0.8392067
-0.8674314 -4.826487 -0.8458881
-0.8674317 -4.823893 -0.852562
-0.867432 -4.821278 -0.8592281
-0.8668519 -4.820641 -0.8666801
-0.8660792 -4.820641 -0.874403
-0.8652987 -4.820642 -0.882143
-0.8645104 -4.820642 -0.889904
-0.8637141 -4.820642 -0.8976841
-0.8629099 -4.820644 -0.9054832
-0.8620977 -4.820644 -0.9133015
-0.8612775 -4.820644 -0.9211407
-0.8604492 -4.820646 -0.9290009
-0.8596127 -4.820646 -0.9368801
-0.858768 -4.820646 -0.9447803
-0.8579153 -4.820648 -0.9527016
-0.8570541 -4.820648 -0.9606438
-0.8561846 -4.820648 -0.9686089
-0.8553067 -4.82065 -0.9765949
-0.8544205 -4.82065 -0.984602
-0.8535256 -4.82065 -0.9926319
-0.8526224 -4.820652 -1.000683
-0.8517105 -4.820652 -1.008759
-0.8507899 -4.820654 -1.016855
-0.8498608 -4.820654 -1.024977
-0.8489228 -4.820654 -1.033121
-0.847976 -4.820656 -1.041288
-0.8470204 -4.820656 -1.04948
-0.8460558 -4.820658 -1.057695
-0.8450823 -4.820658 -1.065935
-0.8440997 -4.820658 -1.0742
-0.8431081 -4.82066 -1.082489
-0.8421072 -4.82066 -1.090803
-0.8410973 -4.820662 -1.099144
-0.8400779 -4.820662 -1.10751
-0.8390494 -4.820663 -1.115902
-0.8380113 -4.820663 -1.124321
-0.8369638 -4.820665 -1.132765
-0.8359068 -4.820665 -1.141237
-0.8348402 -4.820667 -1.149736
-0.8337639 -4.820667 -1.158262
-0.8326779 -4.820667 -1.166815
-0.8315821 -4.820669 -1.175398
-0.8304765 -4.820669 -1.184008
-0.8293608 -4.820671 -1.192646
-0.8282353 -4.820671 -1.201315
-0.8270997 -4.820673 -1.210011
-0.8259538 -4.820675 -1.218739
-0.8247978 -4.820675 -1.227493
-0.8236315 -4.820677 -1.23628
-0.8224548 -4.820677 -1.245098
-0.8212676 -4.820679 -1.253946
-0.8200698 -4.820679 -1.262825
-0.8188615 -4.820681 -1.271736
-0.8176426 -4.820681 -1.280678
-0.8164129 -4.820683 -1.289652
-0.8151724 -4.820683 -1.29866
-0.813921 -4.820684 -1.307699
-0.8126585 -4.820684 -1.316772
-0.811385 -4.820686 -1.325878
-0.8101003 -4.820688 -1.33502
-0.8088042 -4.820688 -1.344194
-0.8074968 -4.82069 -1.353403
-0.806178 -4.82069 -1.362648
-0.8048477 -4.820692 -1.371927
-0.8035056 -4.820694 -1.381243
-0.8021519 -4.820694 -1.390594
-0.8007866 -4.820696 -1.399982
-0.7994091 -4.820698 -1.409407
-0.7980196 -4.820698 -1.418869
-0.7966182 -4.8207 -1.42837
-0.7952045 -4.8207 -1.437908
-0.7937785 -4.820702 -1.447485
-0.79234 -4.820704 -1.4571
-0.790889 -4.820704 -1.466755
-0.7894257 -4.820705 -1.47645
-0.7879494 -4.820707 -1.486185
-0.7864605 -4.820709 -1.49596
-0.7849584 -4.820709 -1.505775
-0.7834434 -4.820711 -1.515635
-0.7819153 -4.820713 -1.525534
-0.7803738 -4.820713 -1.535477
-0.7788191 -4.820715 -1.545462
-0.7772508 -4.820717 -1.55549
-0.7756688 -4.820719 -1.565563
-0.7740732 -4.820719 -1.57568
-0.7724638 -4.820721 -1.58584
-0.7708403 -4.820723 -1.596048
-0.7692028 -4.820724 -1.6063
-0.767551 -4.820724 -1.6166
-0.7658848 -4.820726 -1.626945
-0.7642043 -4.820728 -1.637337
-0.7625092 -4.82073 -1.647778
-0.7607992 -4.820732 -1.658268
-0.7590743 -4.820732 -1.668804
-0.7573345 -4.820734 -1.679392
-0.7555795 -4.820736 -1.690029
-0.7538092 -4.820738 -1.700716
-0.7520235 -4.82074 -1.711456
-0.7502221 -4.820742 -1.722246
-0.748405 -4.820742 -1.733088
-0.7465723 -4.820744 -1.743984
-0.7447231 -4.820745 -1.754932
-0.7428581 -4.820747 -1.765936
-0.7409766 -4.820749 -1.776993
-0.7390788 -4.820751 -1.788105
-0.7371641 -4.820753 -1.799273
-0.7352327 -4.820755 -1.810497
-0.7332842 -4.820757 -1.821779
-0.7313187 -4.820759 -1.83312
-0.7293357 -4.820761 -1.844517
-0.7273353 -4.820761 -1.855974
-0.7253174 -4.820763 -1.867491
-0.7232815 -4.820765 -1.879068
-0.7212276 -4.820766 -1.890707
-0.7191556 -4.820768 -1.902407
-0.7170652 -4.82077 -1.914169
-0.7149562 -4.820772 -1.925995
-0.7128284 -4.820774 -1.937885
-0.7106816 -4.820776 -1.949841
-0.7085157 -4.820778 -1.961861
-0.7063305 -4.820782 -1.973948
-0.7041258 -4.820784 -1.986101
-0.7019012 -4.820786 -1.998322
-0.6996567 -4.820787 -2.010612
-0.6973921 -4.820789 -2.022972
-0.6951071 -4.820791 -2.035402
-0.6928016 -4.820793 -2.047903
-0.6904752 -4.820795 -2.060474
-0.6881276 -4.820797 -2.07312
-0.6857588 -4.820801 -2.08584
-0.6833686 -4.820803 -2.098635
-0.6809565 -4.820805 -2.111504
-0.6785225 -4.820807 -2.124449
-0.6760663 -4.820808 -2.137472
-0.6735876 -4.82081 -2.150572
-0.6710863 -4.820814 -2.163754
-0.6685619 -4.820816 -2.177013
-0.648685 -4.820984 2.180984
-0.6512746 -4.82098 2.167698
-0.6538405 -4.820976 2.154493
-0.6563831 -4.820972 2.141369
-0.6589028 -4.820971 2.128321
-0.6613997 -4.820967 2.115351
-0.663874 -4.820963 2.102459
-0.666326 -4.820961 2.089642
-0.6687558 -4.820957 2.076899
-0.6711639 -4.820953 2.06423
-0.6735504 -4.820951 2.051636
-0.6759154 -4.820948 2.039112
-0.6782593 -4.820946 2.026661
-0.6805824 -4.820942 2.01428
-0.6828847 -4.82094 2.001968
-0.6851665 -4.820936 1.989725
-0.6874281 -4.820934 1.977551
-0.6896696 -4.82093 1.965443
-0.6918913 -4.820929 1.953402
-0.6940932 -4.820925 1.941427
-0.6962758 -4.820923 1.929518
-0.698439 -4.820919 1.917673
-0.7005833 -4.820917 1.90589
-0.7027086 -4.820913 1.894171
-0.7048153 -4.820911 1.882513
-0.7069036 -4.820908 1.870916
-0.7089735 -4.820906 1.859381
-0.7110254 -4.820904 1.847906
-0.7130591 -4.8209 1.836489
-0.7150753 -4.820898 1.825132
-0.7170737 -4.820896 1.813831
-0.7190549 -4.820892 1.802589
-0.7210187 -4.82089 1.791405
-0.7229655 -4.820889 1.780275
-0.7248952 -4.820885 1.769199
-0.7268084 -4.820883 1.758181
-0.7287049 -4.820881 1.747215
-0.7305848 -4.820877 1.736303
-0.7324486 -4.820875 1.725445
-0.7342961 -4.820873 1.714638
-0.7361279 -4.820871 1.703884
-0.7379435 -4.820868 1.69318
-0.7397436 -4.820866 1.682528
-0.7415282 -4.820864 1.671925
-0.7432973 -4.820862 1.661371
-0.7450511 -4.820858 1.650867
-0.7467899 -4.820856 1.640411
-0.7485138 -4.820854 1.630005
-0.7502226 -4.820852 1.619644
-0.7519167 -4.82085 1.609331
-0.7535964 -4.820848 1.599064
-0.7552615 -4.820845 1.588842
-0.7569123 -4.820843 1.578669
-0.758549 -4.820841 1.568537
-0.7601714 -4.820839 1.558451
-0.76178 -4.820837 1.548409
-0.7633746 -4.820835 1.53841
-0.7649556 -4.820833 1.528456
-0.766523 -4.820831 1.518541
-0.768077 -4.820829 1.508671
-0.7696175 -4.820827 1.498842
-0.7711449 -4.820826 1.489054
-0.7726589 -4.820824 1.479305
-0.77416 -4.82082 1.469599
-0.7756482 -4.820818 1.459932
-0.7771235 -4.820816 1.450304
-0.7785861 -4.820814 1.440716
-0.7800361 -4.820812 1.431166
-0.7814736 -4.82081 1.421654
-0.7828988 -4.820808 1.41218
-0.7843115 -4.820807 1.402742
-0.7857121 -4.820805 1.393343
-0.7871004 -4.820803 1.383982
-0.788477 -4.820801 1.374655
-0.7898415 -4.820801 1.365364
-0.7911942 -4.820799 1.356108
-0.7925352 -4.820797 1.346888
-0.7938645 -4.820795 1.337702
-0.7951823 -4.820793 1.328552
-0.7964886 -4.820791 1.319435
-0.7977836 -4.820789 1.31035
-0.7990672 -4.820787 1.301302
-0.8003396 -4.820786 1.292284
-0.801601 -4.820784 1.283298
-0.8028513 -4.820782 1.274347
-0.8040907 -4.820782 1.265427
-0.8053191 -4.82078 1.256538
-0.8065369 -4.820778 1.247681
-0.8077439 -4.820776 1.238853
-0.8089401 -4.820774 1.230059
-0.810126 -4.820772 1.221292
-0.8113014 -4.82077 1.212557
-0.8124661 -4.82077 1.20385
-0.8136207 -4.820768 1.195173
-0.8147651 -4.820766 1.186525
-0.8158992 -4.820765 1.177906
-0.8170232 -4.820763 1.169315
-0.8181372 -4.820763 1.160753
-0.8192413 -4.820761 1.152218
-0.8203354 -4.820759 1.143711
-0.8214197 -4.820757 1.135231
-0.8224942 -4.820755 1.126778
-0.8235589 -4.820755 1.118351
-0.8246142 -4.820753 1.109951
-0.8256598 -4.820751 1.101578
-0.8266958 -4.820749 1.093229
-0.8277224 -4.820749 1.084908
-0.8287397 -4.820747 1.076609
-0.8297477 -4.820745 1.068336
-0.8307464 -4.820744 1.060089
-0.831736 -4.820744 1.051867
-0.8327162 -4.820742 1.043667
-0.8336875 -4.82074 1.035492
-0.8346498 -4.82074 1.027342
-0.8356031 -4.820738 1.019213
-0.8365476 -4.820736 1.011108
-0.837483 -4.820736 1.003027
-0.8384097 -4.820734 0.9949684
-0.8393279 -4.820732 0.9869308
-0.8402371 -4.820732 0.9789162
-0.8411377 -4.82073 0.9709244
-0.8420298 -4.820728 0.9629536
-0.8429134 -4.820728 0.9550037
-0.8437884 -4.820726 0.9470768
-0.844655 -4.820724 0.9391689
-0.8455132 -4.820724 0.931282
-0.8463631 -4.820723 0.923418
-0.8472047 -4.820721 0.9155712
-0.8480381 -4.820721 0.9077473
-0.8488632 -4.820719 0.8999424
-0.8496803 -4.820719 0.8921566
-0.8504892 -4.820717 0.8843899
-0.85129 -4.820715 0.8766422
-0.8520828 -4.820715 0.8689156
-0.8528677 -4.820713 0.8612061
-0.8536447 -4.820713 0.8535156
-0.8544139 -4.820711 0.8458424
-0.8551751 -4.820709 0.8381882
-0.8559284 -4.820709 0.8305531
-0.8566741 -4.820707 0.8229351
-0.8574122 -4.820707 0.8153324
-0.8581424 -4.820705 0.8077507
-0.8588651 -4.820705 0.8001842
-0.8595802 -4.820704 0.792635
-0.8602876 -4.820704 0.7851009
-0.8609877 -4.820702 0.777586
-0.8616802 -4.820702 0.7700863
-0.8623653 -4.8207 0.7626019
-0.8630429 -4.820698 0.7551346
-0.8637132 -4.820698 0.7476826
-0.8643762 -4.820696 0.7402477
-0.8650318 -4.820696 0.7328262
-0.8656802 -4.820694 0.7254219
-0.8663214 -4.820694 0.7180309
-0.8666869 -4.821617 0.7109566
-0.8666924 -4.823761 0.7042828
-0.8666979 -4.825882 0.6976051
-0.8667035 -4.827984 0.690918
-0.8667089 -4.830065 0.684227
-0.8667144 -4.832127 0.6775284
-0.8667198 -4.834166 0.6708241
-0.8667252 -4.836185 0.664114
-0.8667306 -4.838184 0.6573963
-0.866736 -4.840164 0.6506748
-0.8667414 -4.842123 0.6439457
-0.8667467 -4.844061 0.6372108
-0.866752 -4.845978 0.6304722
-0.8667573 -4.847876 0.6237259
-0.8667626 -4.849751 0.6169739
-0.8667678 -4.851606 0.6102161
-0.8667731 -4.853443 0.6034546
-0.8667783 -4.855257 0.5966854
-0.8667835 -4.85705 0.5899124
-0.8667887 -4.858824 0.5831337
-0.8667938 -4.860577 0.5763493
-0.866799 -4.862309 0.5695591
-0.8668041 -4.864019 0.5627632
-0.8668092 -4.865711 0.5559635
-0.8668143 -4.86738 0.5491581
-0.8668193 -4.86903 0.5423489
-0.8668243 -4.870657 0.5355339
-0.8668294 -4.872265 0.5287132
-0.8668343 -4.873852 0.5218887
-0.8668393 -4.875418 0.5150604
-0.8668443 -4.876963 0.5082264
-0.8668492 -4.878489 0.5013866
-0.8668541 -4.879992 0.4945431
-0.866859 -4.881474 0.4876957
-0.8668639 -4.882936 0.4808445
-0.8668687 -4.884377 0.4739876
-0.8668736 -4.885798 0.4671268
-0.8668784 -4.887196 0.4602623
-0.8668832 -4.888575 0.453392
-0.8668879 -4.889933 0.4465199
-0.8668926 -4.89127 0.439642
-0.8668974 -4.892584 0.4327602
-0.8669021 -4.893879 0.4258747
-0.8669068 -4.895153 0.4189854
-0.8669114 -4.896406 0.4120922
-0.8669161 -4.897636 0.4051971
-0.8669207 -4.898848 0.3982964
-0.8669252 -4.900036 0.3913918
-0.8669298 -4.901205 0.3844852
-0.8669344 -4.902353 0.377573
-0.8669389 -4.903479 0.3706589
-0.8669434 -4.904585 0.3637409
-0.8669479 -4.905668 0.3568211
-0.8669524 -4.906733 0.3498955
-0.8669568 -4.907774 0.342968
-0.8669612 -4.908796 0.3360386
-0.8669656 -4.909796 0.3291054
-0.86697 -4.910774 0.3221684
-0.8669744 -4.911732 0.3152294
-0.8669786 -4.91267 0.3082867
-0.866983 -4.913586 0.301342
-0.8669872 -4.914478 0.2943935
-0.8669915 -4.915352 0.2874432
-0.8669958 -4.916204 0.2804909
-0.867 -4.917036 0.2735367
-0.8670042 -4.917845 0.2665787
-0.8670084 -4.918634 0.2596169
-0.8670125 -4.919401 0.252655
-0.8670167 -4.920147 0.2456894
-0.8670207 -4.920872 0.2387238
-0.8670248 -4.921576 0.2317543
-0.8670289 -4.922258 0.2247829
-0.8670329 -4.92292 0.2178097
-0.8670369 -4.923559 0.2108345
-0.8670409 -4.924179 0.2038574
-0.8670449 -4.924776 0.1968784
-0.8670489 -4.925354 0.1898975
-0.8670528 -4.925909 0.1829166
-0.8670567 -4.926441 0.1759319
-0.8670606 -4.926954 0.1689472
-0.8670645 -4.927446 0.1619606
-0.8670683 -4.927916 0.1549721
-0.8670721 -4.928366 0.1479816
-0.8670759 -4.928793 0.1409912
-0.8670797 -4.929199 0.1339989
-0.8670834 -4.929585 0.1270065
-0.8670871 -4.929947 0.1200104
-0.8670908 -4.93029 0.1130161
-0.8670945 -4.930611 0.10602
-0.8670982 -4.930912 0.09902191
-0.8671018 -4.93119 0.09202385
-0.8671054 -4.931448 0.08502579
-0.867109 -4.931683 0.07802582
-0.8671126 -4.931898 0.07102394
-0.8671161 -4.932091 0.06402397
-0.8671196 -4.932264 0.05702209
-0.8671231 -4.932415 0.05002022
-0.8671266 -4.932545 0.04301834
-0.86713 -4.932652 0.03601646
-0.8671334 -4.932739 0.02901268
-0.8671368 -4.932804 0.0220108
-0.8671402 -4.93285 0.01500702
-0.8671436 -4.932873 0.008003235
-0.8671468 -4.932873 0.001001358
-0.8671502 -4.932854 -0.006002426
-0.8671535 -4.932814 -0.01300621
-0.8671567 -4.932751 -0.02000809
-0.86716 -4.932667 -0.02701187
-0.8671632 -4.932562 -0.03401375
-0.8671663 -4.932436 -0.04101563
-0.8671695 -4.932289 -0.0480175
-0.8671727 -4.932121 -0.05501747
-0.8671758 -4.931931 -0.06201744
-0.8671789 -4.931719 -0.06901741
-0.8671819 -4.931486 -0.07601547
-0.8671849 -4.931232 -0.08301544
-0.867188 -4.930958 -0.0900116
-0.867191 -4.930662 -0.09700775
-0.8671939 -4.930344 -0.1040039
-0.8671969 -4.930004 -0.1109982
-0.8671998 -4.929644 -0.1179924
-0.8672027 -4.929262 -0.1249847
-0.8672056 -4.92886 -0.1319752
-0.8672084 -4.928436 -0.1389637
-0.8672112 -4.92799 -0.1459522
-0.867214 -4.927525 -0.1529388
-0.8672168 -4.927036 -0.1599255
-0.8672196 -4.926527 -0.1669083
-0.8672223 -4.925997 -0.1738911
-0.867225 -4.925446 -0.180872
-0.8672277 -4.924871 -0.187851
-0.8672304 -4.924278 -0.194828
-0.867233 -4.923662 -0.2018032
-0.8672356 -4.923027 -0.2087765
-0.8672382 -4.922369 -0.2157478
-0.8672407 -4.92169 -0.2227173
-0.8672433 -4.92099 -0.2296829
-0.8672458 -4.920269 -0.2366486
-0.8672482 -4.919527 -0.2436104
-0.8672507 -4.918762 -0.2505722
-0.8672532 -4.917978 -0.2575302
-0.8672556 -4.917171 -0.2644844
-0.867258 -4.916346 -0.2714386
-0.8672603 -4.915497 -0.278389
-0.8672627 -4.914627 -0.2853355
-0.867265 -4.913738 -0.2922802
-0.8672673 -4.912827 -0.2992229
-0.8672695 -4.911894 -0.3061619
-0.8672718 -4.91094 -0.3130989
-0.867274 -4.909966 -0.3200321
-0.8672762 -4.908968 -0.3269634
-0.8672783 -4.907951 -0.3338909
-0.8672805 -4.906914 -0.3408146
-0.8672826 -4.905855 -0.3477364
-0.8672847 -4.904774 -0.3546543
-0.8672867 -4.903673 -0.3615685
-0.8672888 -4.902552 -0.3684807
-0.8672908 -4.901407 -0.3753872
-0.8672928 -4.900244 -0.3822918
-0.8672948 -4.899057 -0.3891926
-0.8672967 -4.897852 -0.3960896
-0.8672986 -4.896626 -0.4029827
-0.8673005 -4.895376 -0.4098721
-0.8673024 -4.894108 -0.4167576
-0.8673042 -4.892818 -0.4236393
-0.8673061 -4.891506 -0.4305172
-0.8673078 -4.890175 -0.4373894
-0.8673096 -4.888823 -0.4442596
-0.8673114 -4.887449 -0.4511242
-0.867313 -4.886055 -0.4579849
-0.8673148 -4.88464 -0.4648418
-0.8673164 -4.883204 -0.4716949
-0.867318 -4.881746 -0.4785423
-0.8673196 -4.880268 -0.4853859
-0.8673213 -4.878769 -0.4922256
-0.8673228 -4.877251 -0.4990597
-0.8673244 -4.87571 -0.5058899
-0.8673259 -4.874149 -0.5127144
-0.8673274 -4.872566 -0.5195351
-0.8673288 -4.870964 -0.52635
-0.8673303 -4.869341 -0.5331612
-0.8673317 -4.867699 -0.5399666
-0.8673331 -4.866034 -0.5467663
-0.8673344 -4.864349 -0.5535622
-0.8673358 -4.862642 -0.5603523
-0.8673371 -4.860916 -0.5671368
-0.8673384 -4.859169 -0.5739155
-0.8673397 -4.857401 -0.5806904
-0.8673409 -4.855614 -0.5874596
-0.8673421 -4.853804 -0.594223
-0.8673433 -4.851974 -0.6009808
-0.8673444 -4.850124 -0.6077328
-0.8673456 -4.848253 -0.6144791
-0.8673467 -4.846363 -0.6212196
-0.8673478 -4.844452 -0.6279545
-0.8673488 -4.84252 -0.6346836
-0.8673499 -4.840567 -0.641407
-0.8673509 -4.838594 -0.6481247
-0.8673519 -4.836601 -0.6548347
-0.8673528 -4.834587 -0.661541
-0.8673537 -4.832554 -0.6682396
-0.8673547 -4.8305 -0.6749325
-0.8673555 -4.828424 -0.6816177
-0.8673564 -4.82633 -0.6882992
-0.8673573 -4.824213 -0.6949711
-0.867358 -4.822079 -0.7016392
-0.867149 -4.820646 -0.7085342
-0.8665171 -4.820646 -0.7159061
-0.8658782 -4.820646 -0.7232914
-0.865232 -4.820646 -0.7306919
-0.8645787 -4.820648 -0.7381077
-0.8639179 -4.820648 -0.7455406
-0.86325 -4.820648 -0.7529869
-0.8625745 -4.820648 -0.7604504
-0.8618917 -4.82065 -0.7679291
-0.8612015 -4.82065 -0.775423
-0.8605038 -4.82065 -0.7829342
-0.8597986 -4.82065 -0.7904606
-0.8590859 -4.820652 -0.7980061
-0.8583656 -4.820652 -0.8055668
-0.8576376 -4.820652 -0.8131447
-0.856902 -4.820652 -0.8207397
-0.8561587 -4.820654 -0.8283539
-0.8554077 -4.820654 -0.8359833
-0.8546488 -4.820654 -0.8436317
-0.8538821 -4.820656 -0.8512993
-0.8531076 -4.820656 -0.858984
-0.8523251 -4.820656 -0.8666878
-0.8515348 -4.820658 -0.8744087
-0.8507364 -4.820658 -0.8821507
-0.84993 -4.820658 -0.8899097
-0.8491155 -4.82066 -0.8976898
-0.8482928 -4.82066 -0.905489
-0.847462 -4.82066 -0.9133091
-0.8466229 -4.820662 -0.9211483
-0.8457756 -4.820662 -0.9290066
-0.8449199 -4.820662 -0.9368877
-0.8440559 -4.820663 -0.944788
-0.8431835 -4.820663 -0.9527092
-0.8423026 -4.820665 -0.9606514
-0.8414131 -4.820665 -0.9686165
-0.8405151 -4.820665 -0.9766006
-0.8396084 -4.820667 -0.9846096
-0.8386931 -4.820667 -0.9926395
-0.837769 -4.820667 -1.00069
-0.8368363 -4.820669 -1.008766
-0.8358946 -4.820669 -1.016863
-0.8349441 -4.820671 -1.024984
-0.8339846 -4.820671 -1.033129
-0.8330162 -4.820671 -1.041296
-0.8320385 -4.820673 -1.049488
-0.8310519 -4.820673 -1.057703
-0.830056 -4.820675 -1.065943
-0.8290508 -4.820675 -1.074207
-0.8280364 -4.820677 -1.082497
-0.8270127 -4.820677 -1.090813
-0.8259795 -4.820679 -1.099154
-0.8249368 -4.820679 -1.107519
-0.8238846 -4.820679 -1.115911
-0.8228227 -4.820681 -1.124329
-0.8217512 -4.820681 -1.132774
-0.82067 -4.820683 -1.141245
-0.8195789 -4.820683 -1.149744
-0.8184778 -4.820684 -1.15827
-0.817367 -4.820684 -1.166824
-0.816246 -4.820686 -1.175407
-0.815115 -4.820686 -1.184017
-0.8139738 -4.820688 -1.192656
-0.8128224 -4.820688 -1.201324
-0.8116606 -4.82069 -1.21002
-0.8104886 -4.82069 -1.218748
-0.809306 -4.820692 -1.227505
-0.808113 -4.820694 -1.23629
-0.8069092 -4.820694 -1.245108
-0.8056948 -4.820696 -1.253956
-0.8044695 -4.820696 -1.262835
-0.8032335 -4.820698 -1.271746
-0.8019866 -4.820698 -1.280687
-0.8007287 -4.8207 -1.289663
-0.7994598 -4.8207 -1.29867
-0.7981795 -4.820702 -1.307711
-0.7968881 -4.820704 -1.316782
-0.7955852 -4.820704 -1.32589
-0.7942709 -4.820705 -1.33503
-0.7929451 -4.820705 -1.344206
-0.7916079 -4.820707 -1.353415
-0.7902587 -4.820709 -1.362659
-0.7888979 -4.820709 -1.371939
-0.787525 -4.820711 -1.381254
-0.7861403 -4.820713 -1.390606
-0.7847435 -4.820713 -1.399994
-0.7833345 -4.820715 -1.409418
-0.7819132 -4.820717 -1.41888
-0.7804794 -4.820717 -1.428381
-0.7790334 -4.820719 -1.43792
-0.7775746 -4.820721 -1.447496
-0.7761032 -4.820721 -1.457111
-0.7746189 -4.820723 -1.466766
-0.7731218 -4.820724 -1.476461
-0.7716118 -4.820724 -1.486197
-0.7700886 -4.820726 -1.495972
-0.7685521 -4.820728 -1.505789
-0.7670025 -4.820728 -1.515646
-0.7654392 -4.82073 -1.525547
-0.7638624 -4.820732 -1.53549
-0.7622719 -4.820734 -1.545475
-0.7606675 -4.820734 -1.555504
-0.7590494 -4.820736 -1.565577
-0.7574171 -4.820738 -1.575693
-0.7557707 -4.82074 -1.585855
-0.75411 -4.82074 -1.596062
-0.7524348 -4.820742 -1.606314
-0.7507451 -4.820744 -1.616613
-0.7490408 -4.820745 -1.626959
-0.7473217 -4.820747 -1.637352
-0.7455876 -4.820749 -1.647793
-0.7438384 -4.820749 -1.658281
-0.742074 -4.820751 -1.668819
-0.7402941 -4.820753 -1.679407
-0.7384989 -4.820755 -1.690044
-0.7366878 -4.820757 -1.700731
-0.7348612 -4.820759 -1.71147
-0.7330185 -4.820759 -1.722261
-0.7311597 -4.820761 -1.733103
-0.7292848 -4.820763 -1.743999
-0.7273933 -4.820765 -1.754948
-0.7254854 -4.820766 -1.765951
-0.7235608 -4.820768 -1.777008
-0.7216192 -4.82077 -1.78812
-0.7196608 -4.820772 -1.79929
-0.7176849 -4.820774 -1.810514
-0.7156917 -4.820776 -1.821796
-0.713681 -4.820778 -1.833136
-0.7116528 -4.82078 -1.844534
-0.7096065 -4.820782 -1.855991
-0.7075421 -4.820784 -1.867508
-0.7054595 -4.820786 -1.879086
-0.7033586 -4.820787 -1.890724
-0.701239 -4.820789 -1.902424
-0.6991005 -4.820791 -1.914186
-0.696943 -4.820793 -1.926014
-0.6947665 -4.820795 -1.937902
-0.6925704 -4.820797 -1.949858
-0.6903548 -4.820799 -1.96188
-0.6881195 -4.820801 -1.973965
-0.6858642 -4.820803 -1.986118
-0.6835886 -4.820805 -1.998341
-0.6812925 -4.820807 -2.010632
-0.6789759 -4.82081 -2.022991
-0.6766385 -4.820812 -2.035421
-0.6742799 -4.820814 -2.047922
-0.6719002 -4.820816 -2.060493
-0.6694986 -4.820818 -2.073141
-0.6670754 -4.82082 -2.085859
-0.6646304 -4.820824 -2.098654
-0.662163 -4.820826 -2.111523
-0.6596731 -4.820827 -2.12447
-0.6571604 -4.820829 -2.137491
-0.6546249 -4.820831 -2.150593
-0.6520661 -4.820835 -2.163774
-0.6494839 -4.820837 -2.177034
-0.6295278 -4.821005 2.181005
-0.6321757 -4.821001 2.167719
-0.6347995 -4.820997 2.154514
-0.6373994 -4.820993 2.141388
-0.6399756 -4.820992 2.128342
-0.6425288 -4.820988 2.115372
-0.6450588 -4.820984 2.102478
-0.647566 -4.820982 2.089661
-0.6500506 -4.820978 2.076918
-0.6525128 -4.820974 2.064251
-0.654953 -4.820972 2.051655
-0.6573714 -4.820969 2.039131
-0.659768 -4.820965 2.02668
-0.6621433 -4.820963 2.014299
-0.6644975 -4.820959 2.001987
-0.6668307 -4.820957 1.989744
-0.6691431 -4.820953 1.97757
-0.6714352 -4.820951 1.965462
-0.6737067 -4.820948 1.953421
-0.6759584 -4.820946 1.941446
-0.6781902 -4.820942 1.929535
-0.680402 -4.82094 1.91769
-0.6825945 -4.820936 1.905907
-0.6847677 -4.820934 1.894188
-0.6869219 -4.82093 1.88253
-0.6890571 -4.820929 1.870934
-0.6911736 -4.820925 1.859398
-0.6932715 -4.820923 1.847923
-0.6953512 -4.820919 1.836506
-0.6974127 -4.820917 1.825148
-0.6994563 -4.820915 1.813848
-0.7014819 -4.820911 1.802607
-0.70349 -4.82091 1.79142
-0.7054805 -4.820908 1.780291
-0.7074538 -4.820904 1.769217
-0.7094099 -4.820902 1.758196
-0.7113491 -4.8209 1.747231
-0.7132714 -4.820896 1.736319
-0.7151771 -4.820894 1.72546
-0.7170663 -4.820892 1.714653
-0.7189392 -4.820889 1.703897
-0.7207958 -4.820887 1.693195
-0.7226363 -4.820885 1.682541
-0.7244611 -4.820883 1.67194
-0.7262701 -4.820881 1.661386
-0.7280634 -4.820877 1.650881
-0.7298413 -4.820875 1.640427
-0.7316037 -4.820873 1.630018
-0.7333512 -4.820871 1.619658
-0.7350835 -4.820869 1.609344
-0.7368009 -4.820866 1.599077
-0.7385036 -4.820864 1.588858
-0.7401915 -4.820862 1.578682
-0.741865 -4.82086 1.56855
-0.7435241 -4.820858 1.558464
-0.7451687 -4.820856 1.548422
-0.7467994 -4.820854 1.538424
-0.7484159 -4.82085 1.528467
-0.7500185 -4.820848 1.518555
-0.7516076 -4.820847 1.508684
-0.7531826 -4.820845 1.498854
-0.7547444 -4.820843 1.489065
-0.7562926 -4.820841 1.479319
-0.7578275 -4.820839 1.46961
-0.7593492 -4.820837 1.459944
-0.7608577 -4.820835 1.450315
-0.7623532 -4.820833 1.440727
-0.7638358 -4.820831 1.431177
-0.7653058 -4.820829 1.421665
-0.7667628 -4.820827 1.412191
-0.7682075 -4.820826 1.402754
-0.7696396 -4.820824 1.393354
-0.7710592 -4.820822 1.383993
-0.7724667 -4.82082 1.374666
-0.7738619 -4.820818 1.365376
-0.7752451 -4.820816 1.356119
-0.7766163 -4.820814 1.346899
-0.7779756 -4.820812 1.337713
-0.779323 -4.82081 1.328562
-0.7806585 -4.820808 1.319445
-0.7819828 -4.820807 1.310362
-0.7832954 -4.820805 1.301311
-0.7845964 -4.820803 1.292294
-0.7858861 -4.820801 1.28331
-0.7871646 -4.820801 1.274357
-0.7884318 -4.820799 1.265436
-0.7896879 -4.820797 1.256548
-0.7909331 -4.820795 1.24769
-0.7921674 -4.820793 1.238863
-0.7933906 -4.820791 1.230066
-0.7946031 -4.820789 1.221302
-0.7958049 -4.820787 1.212566
-0.7969959 -4.820787 1.203859
-0.7981766 -4.820786 1.195183
-0.7993466 -4.820784 1.186535
-0.8005063 -4.820782 1.177916
-0.8016555 -4.82078 1.169325
-0.8027946 -4.820778 1.160763
-0.8039235 -4.820778 1.152227
-0.8050422 -4.820776 1.143721
-0.8061509 -4.820774 1.135241
-0.8072496 -4.820772 1.126787
-0.8083385 -4.82077 1.118361
-0.8094174 -4.82077 1.109961
-0.8104865 -4.820768 1.101585
-0.8115458 -4.820766 1.093237
-0.8125957 -4.820765 1.084915
-0.8136358 -4.820765 1.076618
-0.8146665 -4.820763 1.068346
-0.8156876 -4.820761 1.060097
-0.8166994 -4.820759 1.051874
-0.8177019 -4.820759 1.043674
-0.8186951 -4.820757 1.0355
-0.8196789 -4.820755 1.027349
-0.8206537 -4.820755 1.01922
-0.8216193 -4.820753 1.011116
-0.8225759 -4.820751 1.003035
-0.8235235 -4.820751 0.994976
-0.8244622 -4.820749 0.9869385
-0.8253919 -4.820747 0.9789238
-0.8263128 -4.820747 0.970932
-0.827225 -4.820745 0.9629612
-0.8281284 -4.820744 0.9550114
-0.8290231 -4.820744 0.9470825
-0.8299093 -4.820742 0.9391766
-0.8307868 -4.82074 0.9312897
-0.8316558 -4.82074 0.9234238
-0.8325163 -4.820738 0.9155788
-0.8333684 -4.820736 0.907753
-0.8342122 -4.820736 0.8999481
-0.8350476 -4.820734 0.8921623
-0.8358747 -4.820732 0.8843956
-0.8366936 -4.820732 0.8766499
-0.8375043 -4.82073 0.8689213
-0.8383068 -4.82073 0.8612118
-0.8391013 -4.820728 0.8535213
-0.8398877 -4.820726 0.8458481
-0.8406661 -4.820726 0.8381939
-0.8414365 -4.820724 0.8305588
-0.842199 -4.820724 0.8229408
-0.8429535 -4.820723 0.81534
-0.8437002 -4.820723 0.8077564
-0.8444392 -4.820721 0.80019
-0.8451703 -4.820719 0.7926407
-0.8458938 -4.820719 0.7851067
-0.8466095 -4.820717 0.7775917
-0.8473177 -4.820717 0.770092
-0.8480181 -4.820715 0.7626076
-0.848711 -4.820715 0.7551403
-0.8493965 -4.820713 0.7476883
-0.8500744 -4.820713 0.7402515
-0.8507447 -4.820711 0.732832
-0.8514077 -4.820711 0.7254257
-0.8520632 -4.820709 0.7180367
-0.8527116 -4.820709 0.7106609
-0.8533525 -4.820707 0.7032986
-0.8539861 -4.820707 0.6959534
-0.8546125 -4.820705 0.6886196
-0.8552316 -4.820705 0.681303
-0.8558436 -4.820704 0.6739979
-0.8564484 -4.820704 0.666708
-0.857046 -4.820702 0.6594315
-0.8576366 -4.820702 0.6521683
-0.8582201 -4.8207 0.6449184
-0.8587966 -4.8207 0.637682
-0.859366 -4.820698 0.6304569
-0.8599284 -4.820698 0.6232471
-0.860484 -4.820698 0.6160469
-0.8610326 -4.820696 0.6088619
-0.8615742 -4.820696 0.6016884
-0.8621091 -4.820694 0.5945263
-0.8626372 -4.820694 0.5873756
-0.8631583 -4.820692 0.5802383
-0.8636728 -4.820692 0.5731106
-0.8641803 -4.820692 0.5659962
-0.8646813 -4.82069 0.5588932
-0.8651756 -4.82069 0.5517998
-0.8656631 -4.820688 0.5447178
-0.8661439 -4.820688 0.5376472
-0.8666183 -4.820686 0.5305862
-0.8667759 -4.821754 0.5237923
-0.8667808 -4.823328 0.5171223
-0.8667857 -4.824879 0.5104485
-0.8667905 -4.826412 0.5037689
-0.8667954 -4.827923 0.4970837
-0.8668002 -4.829414 0.4903965
-0.866805 -4.830885 0.4837017
-0.8668098 -4.832336 0.477005
-0.8668146 -4.833767 0.4703026
-0.8668193 -4.835176 0.4635963
-0.866824 -4.836565 0.4568863
-0.8668287 -4.837934 0.4501724
-0.8668334 -4.839283 0.4434528
-0.866838 -4.840611 0.4367313
-0.8668427 -4.841919 0.4300041
-0.8668473 -4.843206 0.4232731
-0.8668519 -4.844471 0.4165401
-0.8668565 -4.845718 0.4098015
-0.866861 -4.846943 0.403059
-0.8668656 -4.848148 0.3963146
-0.8668701 -4.849333 0.3895645
-0.8668746 -4.850496 0.3828125
-0.866879 -4.851641 0.3760567
-0.8668835 -4.852762 0.369297
-0.8668879 -4.853865 0.3625355
-0.8668923 -4.854946 0.3557682
-0.8668967 -4.856007 0.348999
-0.8669011 -4.857048 0.342226
-0.8669055 -4.858067 0.3354511
-0.8669097 -4.859066 0.3286724
-0.866914 -4.860044 0.3218918
-0.8669183 -4.861002 0.3151073
-0.8669226 -4.86194 0.3083191
-0.8669268 -4.862856 0.3015289
-0.866931 -4.863752 0.2947369
-0.8669353 -4.864628 0.287941
-0.8669394 -4.865482 0.2811432
-0.8669435 -4.866316 0.2743435
-0.8669477 -4.867128 0.26754
-0.8669518 -4.867922 0.2607346
-0.8669559 -4.868692 0.2539272
-0.8669599 -4.869444 0.247118
-0.866964 -4.870173 0.2403049
-0.866968 -4.870884 0.2334919
-0.866972 -4.871571 0.226675
-0.866976 -4.87224 0.2198563
-0.86698 -4.872887 0.2130356
-0.8669838 -4.873512 0.2062149
-0.8669878 -4.874119 0.1993904
-0.8669916 -4.874704 0.192564
-0.8669955 -4.875267 0.1857357
-0.8669994 -4.875811 0.1789074
-0.8670032 -4.876333 0.1720772
-0.867007 -4.876835 0.1652451
-0.8670108 -4.877316 0.158411
-0.8670145 -4.877775 0.1515751
-0.8670182 -4.878216 0.1447392
-0.867022 -4.878633 0.1379013
-0.8670256 -4.879032 0.1310616
-0.8670293 -4.879408 0.1242218
-0.8670329 -4.879765 0.117382
-0.8670366 -4.8801 0.1105385
-0.8670402 -4.880415 0.1036968
-0.8670437 -4.880709 0.09685135
-0.8670473 -4.880981 0.09000778
-0.8670508 -4.881233 0.08316231
-0.8670543 -4.881464 0.07631493
-0.8670578 -4.881674 0.06946754
-0.8670613 -4.881865 0.06262016
-0.8670647 -4.882032 0.05577278
-0.8670681 -4.882181 0.0489254
-0.8670715 -4.882307 0.04207611
-0.8670748 -4.882414 0.03522682
-0.8670782 -4.882498 0.02837753
-0.8670815 -4.882563 0.02152824
-0.8670849 -4.882607 0.01467896
-0.8670881 -4.882629 0.007827759
-0.8670914 -4.882631 0.0009784698
-0.8670946 -4.882612 -0.005870819
-0.8670978 -4.882572 -0.01272011
-0.867101 -4.882511 -0.0195694
-0.8671042 -4.882431 -0.02641869
-0.8671073 -4.882328 -0.03326797
-0.8671104 -4.882206 -0.04011726
-0.8671135 -4.882061 -0.04696465
-0.8671166 -4.881897 -0.05381203
-0.8671196 -4.881712 -0.06065941
-0.8671227 -4.881504 -0.06750488
-0.8671256 -4.881277 -0.07435036
-0.8671286 -4.881029 -0.08119583
-0.8671316 -4.88076 -0.0880394
-0.8671345 -4.88047 -0.09488297
-0.8671374 -4.880159 -0.1017246
-0.8671403 -4.879829 -0.1085663
-0.8671432 -4.879477 -0.115406
-0.867146 -4.879105 -0.1222458
-0.8671488 -4.87871 -0.1290836
-0.8671516 -4.878296 -0.1359196
-0.8671544 -4.877859 -0.1427555
-0.8671571 -4.877403 -0.1495895
-0.8671598 -4.876926 -0.1564217
-0.8671625 -4.876429 -0.1632519
-0.8671651 -4.87591 -0.1700821
-0.8671678 -4.875372 -0.1769085
-0.8671705 -4.874811 -0.1837349
-0.867173 -4.874229 -0.1905594
-0.8671756 -4.873629 -0.197382
-0.8671781 -4.873007 -0.2042027
-0.8671807 -4.872364 -0.2110214
-0.8671832 -4.8717 -0.2178364
-0.8671857 -4.871016 -0.2246513
-0.8671881 -4.87031 -0.2314644
-0.8671905 -4.869585 -0.2382736
-0.867193 -4.868837 -0.2450809
-0.8671953 -4.868071 -0.2518864
-0.8671977 -4.867283 -0.2586899
-0.8672 -4.866474 -0.2654915
-0.8672023 -4.865644 -0.2722893
-0.8672046 -4.864794 -0.2790852
-0.8672069 -4.863924 -0.2858772
-0.8672091 -4.863031 -0.2926674
-0.8672113 -4.86212 -0.2994556
-0.8672135 -4.861187 -0.3062401
-0.8672157 -4.860233 -0.3130207
-0.8672178 -4.859261 -0.3197994
-0.86722 -4.858265 -0.3265762
-0.8672221 -4.85725 -0.3333492
-0.8672241 -4.856215 -0.3401184
-0.8672262 -4.855158 -0.3468838
-0.8672282 -4.85408 -0.3536472
-0.8672302 -4.852983 -0.3604069
-0.8672321 -4.851866 -0.3671646
-0.8672341 -4.850727 -0.3739166
-0.867236 -4.849567 -0.3806667
-0.8672379 -4.848389 -0.3874111
-0.8672398 -4.847189 -0.3941536
-0.8672417 -4.845968 -0.4008923
-0.8672435 -4.844727 -0.4076271
-0.8672453 -4.843464 -0.4143581
-0.867247 -4.842182 -0.4210854
-0.8672488 -4.840881 -0.4278088
-0.8672506 -4.839558 -0.4345264
-0.8672522 -4.838215 -0.4412422
-0.8672539 -4.836851 -0.4479523
-0.8672556 -4.835466 -0.4546585
-0.8672572 -4.834063 -0.4613609
-0.8672588 -4.832636 -0.4680595
-0.8672604 -4.831192 -0.4747543
-0.8672619 -4.829725 -0.4814434
-0.8672635 -4.828239 -0.4881268
-0.867265 -4.826733 -0.4948082
-0.8672665 -4.825207 -0.501482
-0.8672679 -4.82366 -0.5081539
-0.8672694 -4.822094 -0.5148201
-0.8672283 -4.820652 -0.5215168
-0.8667628 -4.820652 -0.5285625
-0.8662905 -4.820652 -0.5356197
-0.8658118 -4.820652 -0.5426865
-0.8653263 -4.820652 -0.5497665
-0.8648341 -4.820654 -0.5568542
-0.8643352 -4.820654 -0.5639553
-0.8638296 -4.820654 -0.5710678
-0.8633173 -4.820654 -0.5781898
-0.8627982 -4.820654 -0.5853252
-0.8622723 -4.820654 -0.5924702
-0.8617396 -4.820656 -0.5996284
-0.8612 -4.820656 -0.6068001
-0.8606536 -4.820656 -0.6139812
-0.8601002 -4.820656 -0.6211758
-0.8595398 -4.820656 -0.6283836
-0.8589725 -4.820658 -0.635603
-0.8583982 -4.820658 -0.6428356
-0.8578168 -4.820658 -0.6500816
-0.8572285 -4.820658 -0.657341
-0.856633 -4.820658 -0.6646137
-0.8560303 -4.82066 -0.6718998
-0.8554206 -4.82066 -0.6791992
-0.8548037 -4.82066 -0.6865139
-0.8541796 -4.82066 -0.6938419
-0.8535482 -4.820662 -0.7011833
-0.8529096 -4.820662 -0.70854
-0.8522635 -4.820662 -0.7159119
-0.8516102 -4.820662 -0.7232971
-0.8509495 -4.820663 -0.7306976
-0.8502814 -4.820663 -0.7381134
-0.8496057 -4.820663 -0.7455463
-0.8489227 -4.820663 -0.7529926
-0.8482322 -4.820665 -0.7604542
-0.8475339 -4.820665 -0.7679329
-0.8468282 -4.820665 -0.7754288
-0.8461148 -4.820665 -0.7829399
-0.8453937 -4.820667 -0.7904663
-0.8446649 -4.820667 -0.7980118
-0.8439284 -4.820667 -0.8055725
-0.8431841 -4.820669 -0.8131504
-0.8424318 -4.820669 -0.8207455
-0.8416719 -4.820669 -0.8283596
-0.8409039 -4.820671 -0.835989
-0.8401281 -4.820671 -0.8436375
-0.8393442 -4.820671 -0.851305
-0.8385522 -4.820671 -0.8589897
-0.837752 -4.820673 -0.8666935
-0.8369439 -4.820673 -0.8744164
-0.8361275 -4.820673 -0.8821564
-0.8353029 -4.820675 -0.8899174
-0.83447 -4.820675 -0.8976974
-0.833629 -4.820675 -0.9054966
-0.8327793 -4.820677 -0.9133148
-0.8319215 -4.820677 -0.921154
-0.8310551 -4.820679 -0.9290142
-0.8301801 -4.820679 -0.9368935
-0.8292966 -4.820679 -0.9447937
-0.8284045 -4.820681 -0.9527168
-0.8275039 -4.820681 -0.960659
-0.8265945 -4.820681 -0.9686222
-0.8256762 -4.820683 -0.9766083
-0.8247491 -4.820683 -0.9846172
-0.8238133 -4.820684 -0.9926472
-0.8228683 -4.820684 -1.000698
-0.8219145 -4.820686 -1.008774
-0.8209518 -4.820686 -1.01687
-0.8199798 -4.820686 -1.024992
-0.8189987 -4.820688 -1.033136
-0.8180084 -4.820688 -1.041304
-0.8170087 -4.82069 -1.049496
-0.8159999 -4.82069 -1.057711
-0.8149816 -4.82069 -1.065952
-0.8139539 -4.820692 -1.074217
-0.8129166 -4.820692 -1.082506
-0.8118699 -4.820694 -1.09082
-0.8108134 -4.820694 -1.099161
-0.8097473 -4.820696 -1.107527
-0.8086714 -4.820696 -1.115919
-0.8075855 -4.820698 -1.124338
-0.8064899 -4.820698 -1.132782
-0.8053843 -4.8207 -1.141254
-0.8042687 -4.8207 -1.149754
-0.8031429 -4.820702 -1.158279
-0.8020071 -4.820702 -1.166834
-0.8008608 -4.820704 -1.175415
-0.7997045 -4.820704 -1.184027
-0.7985375 -4.820705 -1.192665
-0.7973602 -4.820705 -1.201334
-0.7961723 -4.820707 -1.21003
-0.7949737 -4.820707 -1.218758
-0.7937645 -4.820709 -1.227514
-0.7925446 -4.820711 -1.2363
-0.7913138 -4.820711 -1.245117
-0.790072 -4.820713 -1.253965
-0.7888193 -4.820713 -1.262846
-0.7875555 -4.820715 -1.271755
-0.7862805 -4.820715 -1.280699
-0.7849943 -4.820717 -1.289673
-0.7836967 -4.820719 -1.298679
-0.7823876 -4.820719 -1.30772
-0.7810671 -4.820721 -1.316793
-0.779735 -4.820721 -1.325899
-0.7783911 -4.820723 -1.335041
-0.7770355 -4.820724 -1.344215
-0.7756681 -4.820724 -1.353424
-0.7742886 -4.820726 -1.362669
-0.7728971 -4.820728 -1.37195
-0.7714933 -4.820728 -1.381266
-0.7700775 -4.82073 -1.390617
-0.7686492 -4.820732 -1.400005
-0.7672084 -4.820732 -1.40943
-0.7657551 -4.820734 -1.418892
-0.7642893 -4.820736 -1.428392
-0.7628105 -4.820736 -1.437931
-0.761319 -4.820738 -1.447508
-0.7598145 -4.82074 -1.457125
-0.7582968 -4.82074 -1.46678
-0.756766 -4.820742 -1.476473
-0.7552218 -4.820744 -1.48621
-0.7536644 -4.820744 -1.495985
-0.7520934 -4.820745 -1.505802
-0.7505087 -4.820747 -1.515659
-0.7489104 -4.820749 -1.52556
-0.747298 -4.820751 -1.535501
-0.7456717 -4.820751 -1.545488
-0.7440314 -4.820753 -1.555517
-0.7423767 -4.820755 -1.56559
-0.7407078 -4.820757 -1.575706
-0.7390242 -4.820757 -1.585869
-0.7373261 -4.820759 -1.596075
-0.7356133 -4.820761 -1.606327
-0.7338855 -4.820763 -1.616627
-0.7321429 -4.820765 -1.626972
-0.730385 -4.820766 -1.637365
-0.7286119 -4.820766 -1.647806
-0.7268232 -4.820768 -1.658297
-0.7250192 -4.82077 -1.668833
-0.7231992 -4.820772 -1.67942
-0.7213636 -4.820774 -1.690058
-0.7195118 -4.820776 -1.700747
-0.717644 -4.820778 -1.711485
-0.7157599 -4.820778 -1.722277
-0.7138593 -4.82078 -1.733118
-0.7119421 -4.820782 -1.744015
-0.7100081 -4.820784 -1.754963
-0.7080572 -4.820786 -1.765966
-0.7060893 -4.820787 -1.777023
-0.7041041 -4.820789 -1.788137
-0.7021014 -4.820791 -1.799305
-0.7000811 -4.820793 -1.81053
-0.6980432 -4.820795 -1.821812
-0.6959871 -4.820797 -1.833153
-0.6939132 -4.820799 -1.844551
-0.6918207 -4.820801 -1.856009
-0.68971 -4.820803 -1.867525
-0.6875806 -4.820805 -1.879103
-0.6854322 -4.820807 -1.890741
-0.6832649 -4.820808 -1.902441
-0.6810784 -4.82081 -1.914204
-0.6788724 -4.820812 -1.926031
-0.6766468 -4.820814 -1.937922
-0.6744012 -4.820816 -1.949877
-0.6721358 -4.82082 -1.961897
-0.6698502 -4.820822 -1.973984
-0.667544 -4.820824 -1.986137
-0.6652172 -4.820826 -1.99836
-0.6628695 -4.820827 -2.010649
