0.6633396 -4.82242 1.796555
0.6556885 -4.822411 1.795729
0.6480193 -4.822403 1.794895
0.6403317 -4.822395 1.794054
0.6326258 -4.822386 1.793201
0.6249011 -4.822378 1.792343
0.6171576 -4.822369 1.791475
0.609395 -4.822361 1.790598
0.601613 -4.822351 1.789711
0.5938116 -4.822342 1.788816
0.5859904 -4.822334 1.787912
0.5781494 -4.822325 1.787001
0.5702878 -4.822317 1.786079
0.5624061 -4.822308 1.785149
0.5545037 -4.8223 1.784208
0.5465804 -4.82229 1.78326
0.5386359 -4.822281 1.782301
0.5306702 -4.822273 1.781334
0.5226828 -4.822264 1.780357
0.5146737 -4.822254 1.779371
0.5066424 -4.822247 1.778376
0.4985888 -4.822237 1.77737
0.4905125 -4.822227 1.776356
0.4824138 -4.82222 1.775331
0.4742921 -4.82221 1.774298
0.4661469 -4.822201 1.773254
0.4579782 -4.822193 1.7722
0.4497856 -4.822184 1.771137
0.4415691 -4.822174 1.770063
0.4333282 -4.822165 1.76898
0.4250627 -4.822155 1.767887
0.4167725 -4.822147 1.766783
0.4084572 -4.822138 1.765669
0.4001163 -4.822128 1.764545
0.3917499 -4.822119 1.763411
0.3833576 -4.822109 1.762266
0.3749391 -4.8221 1.761112
0.366494 -4.82209 1.759947
0.358022 -4.822081 1.75877
0.3495232 -4.822071 1.757582
0.340997 -4.822062 1.756384
0.3324433 -4.822052 1.755177
0.3238615 -4.822044 1.753958
0.3152516 -4.822033 1.752726
0.3066131 -4.822023 1.751484
0.2979457 -4.822014 1.750233
0.2892493 -4.822004 1.748968
0.280523 -4.821995 1.747692
0.2717677 -4.821985 1.746407
0.2629818 -4.821976 1.745108
0.2541656 -4.821966 1.743799
0.2453188 -4.821957 1.742477
0.2364406 -4.821947 1.741144
0.2275314 -4.821936 1.739799
0.2185904 -4.821926 1.738443
0.2096175 -4.821917 1.737076
0.2006116 -4.821907 1.735695
0.1915735 -4.821898 1.734303
0.1825023 -4.821886 1.732897
0.1733975 -4.821877 1.73148
0.1642591 -4.821867 1.730049
0.1550864 -4.821856 1.728607
0.1458792 -4.821846 1.727152
0.1366372 -4.821836 1.725683
0.1273597 -4.821825 1.724203
0.1180467 -4.821815 1.72271
0.1086975 -4.821804 1.721203
0.09931214 -4.821795 1.719683
0.08989018 -4.821783 1.718151
0.08043043 -4.821774 1.716604
0.07093396 -4.821762 1.715044
0.06139874 -4.821753 1.71347
0.05182548 -4.821741 1.711884
0.04221348 -4.821732 1.710283
0.03256189 -4.82172 1.708668
0.02287095 -4.821709 1.707039
0.0131396 -4.821699 1.705397
0.003368179 -4.821688 1.703739
-0.006444252 -4.821676 1.702068
-0.01629794 -4.821665 1.700382
-0.02619371 -4.821655 1.698681
-0.03613181 -4.821644 1.696964
-0.04611247 -4.821632 1.695234
-0.05613641 -4.821621 1.693489
-0.066204 -4.821609 1.691729
-0.07631593 -4.8216 1.689953
-0.08647186 -4.821589 1.688162
-0.09667346 -4.821577 1.686356
-0.1069204 -4.821566 1.684532
-0.1172139 -4.821554 1.682693
-0.1275534 -4.821543 1.68084
-0.1379403 -4.821531 1.678968
-0.1483748 -4.82152 1.677082
-0.1588575 -4.821507 1.67518
-0.169389 -4.821495 1.67326
-0.1799697 -4.821484 1.671324
-0.1906002 -4.821472 1.669371
-0.2012808 -4.821461 1.6674
-0.2120127 -4.821449 1.665413
-0.2227958 -4.821436 1.663408
-0.2336308 -4.821424 1.661386
-0.2445186 -4.821413 1.659346
-0.2554593 -4.8214 1.65729
-0.266454 -4.821388 1.655214
-0.2775035 -4.821375 1.65312
-0.2886072 -4.821363 1.651007
-0.2997671 -4.82135 1.648876
-0.3109829 -4.821339 1.646727
-0.3222562 -4.821325 1.64456
-0.3335868 -4.821314 1.642372
-0.3449749 -4.821301 1.640165
-0.3564227 -4.821287 1.637939
-0.3679298 -4.821276 1.635693
-0.3794972 -4.821262 1.633429
-0.3911254 -4.821249 1.631142
-0.4028151 -4.821236 1.628836
-0.4145673 -4.821222 1.626511
-0.4263823 -4.821211 1.624163
-0.4382614 -4.821198 1.621796
-0.4502048 -4.821184 1.619408
-0.4622137 -4.821171 1.616997
-0.474288 -4.821157 1.614565
-0.4864294 -4.821144 1.612112
-0.4986386 -4.821129 1.609636
-0.5109161 -4.821115 1.60714
-0.5232631 -4.821102 1.604618
-0.5356795 -4.821089 1.602076
-0.5481669 -4.821075 1.59951
-0.5607259 -4.82106 1.596922
-0.5733575 -4.821047 1.594311
-0.5860634 -4.821033 1.591675
-0.5988424 -4.821018 1.589014
-0.6116971 -4.821005 1.58633
-0.6246276 -4.82099 1.583624
-0.6376351 -4.820974 1.580891
-0.6507208 -4.820961 1.578133
-0.6638853 -4.820946 1.57535
-0.6771298 -4.82093 1.57254
25.85996 -26.99997 -8.085138
25.71161 -26.99997 -8.052942
25.56415 -26.99997 -8.021051
25.41758 -26.99997 -7.989466
25.27189 -26.99997 -7.958124
25.12707 -26.99997 -7.927118
24.98309 -26.99997 -7.896357
24.83997 -26.99997 -7.86587
24.69768 -26.99997 -7.835688
24.55622 -26.99997 -7.805719
24.41556 -26.99997 -7.776087
24.27572 -26.99997 -7.746698
24.13667 -26.99997 -7.717585
23.99841 -26.99997 -7.688684
23.86093 -26.99997 -7.660089
23.72422 -26.99997 -7.631708
23.58827 -26.99997 -7.603632
23.45306 -26.99997 -7.575739
23.3186 -26.99997 -7.548151
23.18488 -26.99997 -7.520777
23.05187 -26.99997 -7.493677
22.91959 -26.99997 -7.466761
22.78801 -26.99997 -7.440119
22.65714 -26.99997 -7.413691
22.52695 -26.99997 -7.387537
12.55279 -15.52413 -2.715841
12.48472 -15.52421 -2.702265
12.417 -15.52429 -2.688808
12.34963 -15.52436 -2.675468
12.28261 -15.52444 -2.662247
12.21593 -15.52451 -2.649139
12.14959 -15.52459 -2.636147
9.73164 -12.66137 -1.484747
9.680433 -12.66128 -1.474758
9.629486 -12.66119 -1.464855
9.578789 -12.6611 -1.45504
9.528343 -12.66101 -1.445309
9.478143 -12.66092 -1.435663
9.428188 -12.66084 -1.4261
9.378473 -12.66075 -1.416618
9.329 -12.66067 -1.407221
9.27976 -12.66058 -1.397903
9.230757 -12.66049 -1.388668
9.181983 -12.66041 -1.379511
9.133439 -12.66033 -1.370434
9.085121 -12.66024 -1.361435
9.037026 -12.66016 -1.352514
8.989153 -12.66007 -1.343668
8.941499 -12.65999 -1.3349
8.894061 -12.65991 -1.326208
8.846837 -12.65983 -1.317591
8.799825 -12.65974 -1.309046
8.753023 -12.65966 -1.300575
8.706428 -12.65958 -1.292177
8.660038 -12.6595 -1.283852
8.613852 -12.65942 -1.275599
8.567864 -12.65934 -1.267416
8.522076 -12.65926 -1.259304
8.476484 -12.65918 -1.251261
8.431087 -12.6591 -1.243288
8.38588 -12.65902 -1.235384
8.340866 -12.65894 -1.227547
8.296036 -12.65887 -1.219778
8.251395 -12.65879 -1.212076
8.20694 -12.65871 -1.204439
8.162664 -12.65863 -1.196869
8.118569 -12.65856 -1.189363
8.074652 -12.65848 -1.181925
8.030912 -12.6584 -1.174547
7.987348 -12.65833 -1.167234
7.943954 -12.65825 -1.159985
7.900732 -12.65818 -1.1528
7.857679 -12.6581 -1.145674
7.814792 -12.65803 -1.138611
7.772071 -12.65795 -1.131609
7.729514 -12.65788 -1.124668
7.687119 -12.6578 -1.117786
7.644884 -12.65773 -1.110966
7.602808 -12.65766 -1.104202
7.560889 -12.65758 -1.0975
7.519125 -12.65751 -1.090855
7.477514 -12.65744 -1.084267
7.436057 -12.65737 -1.077738
7.394749 -12.65729 -1.071264
7.35359 -12.65722 -1.064848
7.327315 -12.68255 -1.067511
7.327184 -12.75335 -1.086325
7.327051 -12.82491 -1.105371
7.326916 -12.89723 -1.124655
7.326781 -12.97033 -1.14418
7.326643 -13.04422 -1.163952
7.326505 -13.11892 -1.183975
7.326364 -13.19444 -1.20425
7.326222 -13.2708 -1.224787
7.326079 -13.34801 -1.245586
7.325934 -13.42609 -1.266657
7.325787 -13.50505 -1.287998
6.820059 -12.63505 -0.979002
6.781059 -12.63527 -0.9734459
6.742183 -12.63548 -0.9679394
6.703429 -12.6357 -0.9624844
6.664797 -12.63591 -0.957077
6.626285 -12.63612 -0.9517193
6.587892 -12.63633 -0.9464092
6.549615 -12.63654 -0.9411488
6.511456 -12.63675 -0.935936
6.473411 -12.63696 -0.930769
6.435479 -12.63717 -0.9256516
6.397661 -12.63737 -0.9205799
6.359953 -12.63758 -0.915556
6.322356 -12.63778 -0.9105778
6.284869 -12.63799 -0.9056454
6.247488 -12.63819 -0.9007587
6.210214 -12.63839 -0.8959198
6.173046 -12.63859 -0.8911247
6.135983 -12.63879 -0.8863735
6.099021 -12.63899 -0.8816681
6.062164 -12.63919 -0.8770065
6.025405 -12.63939 -0.8723907
5.988749 -12.63959 -0.8678169
5.952189 -12.63978 -0.863287
5.915728 -12.63998 -0.8588009
5.879364 -12.64018 -0.8543587
5.843096 -12.64037 -0.8499584
5.806921 -12.64056 -0.8456001
5.770841 -12.64076 -0.8412857
5.734853 -12.64095 -0.8370132
5.698956 -12.64114 -0.8327827
5.66315 -12.64133 -0.8285923
5.627434 -12.64152 -0.8244457
5.591806 -12.64171 -0.8203392
5.556265 -12.6419 -0.8162727
5.520811 -12.64209 -0.8122482
5.485443 -12.64227 -0.8082619
5.450159 -12.64246 -0.8043194
5.414959 -12.64265 -0.800415
5.37984 -12.64283 -0.7965508
5.344804 -12.64302 -0.7927246
5.30985 -12.6432 -0.7889404
5.274974 -12.64338 -0.7851944
5.240178 -12.64357 -0.7814865
5.20546 -12.64375 -0.7778187
5.170818 -12.64393 -0.774189
5.136253 -12.64411 -0.7705975
5.101764 -12.64429 -0.7670441
5.067348 -12.64447 -0.7635307
5.033007 -12.64465 -0.7600536
4.998738 -12.64482 -0.7566128
4.96454 -12.645 -0.753212
4.930414 -12.64518 -0.7498474
4.896358 -12.64536 -0.7465191
4.862372 -12.64553 -0.7432289
4.828454 -12.64571 -0.739975
4.794603 -12.64588 -0.7367592
4.760818 -12.64606 -0.7335777
4.7271 -12.64623 -0.7304344
4.693448 -12.6464 -0.7273254
4.659859 -12.64657 -0.7242527
4.626334 -12.64675 -0.7212162
4.592872 -12.64692 -0.7182159
4.559472 -12.64709 -0.71525
4.526132 -12.64726 -0.7123203
4.492853 -12.64743 -0.709425
4.459633 -12.6476 -0.7065659
4.427817 -12.65236 -0.7052116
4.428371 -12.769 -0.7396736
4.428938 -12.88817 -0.7749138
4.429518 -13.00997 -0.8109608
4.43011 -13.13448 -0.8478413
4.430716 -13.2618 -0.8855858
4.431335 -13.39202 -0.9242229
4.431969 -13.52525 -0.9637833
4.432617 -13.66159 -1.004303
4.433281 -13.80117 -1.045815
4.104885 -12.67621 -0.6858826
4.072188 -12.6762 -0.6833687
4.039543 -12.67618 -0.680891
4.006948 -12.67617 -0.6784458
3.974404 -12.67616 -0.676033
3.941909 -12.67615 -0.6736546
3.909461 -12.67614 -0.6713085
3.877062 -12.67613 -0.6689968
3.844709 -12.67611 -0.6667156
3.812403 -12.6761 -0.6644688
3.780142 -12.67609 -0.6622543
3.747926 -12.67608 -0.6600723
3.715754 -12.67607 -0.6579247
3.683625 -12.67605 -0.6558075
3.651539 -12.67604 -0.6537209
3.619496 -12.67603 -0.6516685
3.587493 -12.67602 -0.6496487
3.555531 -12.67601 -0.6476593
3.52361 -12.676 -0.6457024
3.491727 -12.67598 -0.6437778
3.459884 -12.67597 -0.6418839
3.428078 -12.67596 -0.6400223
3.39631 -12.67595 -0.6381912
3.364579 -12.67594 -0.6363926
3.332883 -12.67592 -0.6346245
3.301223 -12.67591 -0.6328869
3.269598 -12.6759 -0.6311817
3.238007 -12.67589 -0.6295071
3.20645 -12.67588 -0.6278629
3.174924 -12.67586 -0.6262512
3.143432 -12.67585 -0.62467
3.111971 -12.67584 -0.6231174
3.080541 -12.67583 -0.6215973
3.049141 -12.67582 -0.6201077
3.017771 -12.6758 -0.6186466
2.986429 -12.67579 -0.617218
2.955117 -12.67578 -0.6158199
2.923832 -12.67577 -0.6144505
2.892574 -12.67575 -0.6131115
2.861343 -12.67574 -0.611805
2.830137 -12.67573 -0.610527
2.798958 -12.67572 -0.6092777
2.767802 -12.67571 -0.6080608
2.736671 -12.67569 -0.6068726
2.705564 -12.67568 -0.6057148
2.674479 -12.67567 -0.6045856
2.643417 -12.67566 -0.603487
2.612376 -12.67564 -0.602417
2.581356 -12.67563 -0.6013794
2.550357 -12.67562 -0.6003685
2.519377 -12.67561 -0.5993881
2.488417 -12.6756 -0.5984383
2.457476 -12.67558 -0.597517
2.426553 -12.67557 -0.5966244
2.395647 -12.67556 -0.5957623
2.364758 -12.67555 -0.5949287
2.333886 -12.67553 -0.5941257
2.303029 -12.67552 -0.5933514
2.272188 -12.67551 -0.5926056
2.241361 -12.6755 -0.5918903
2.210548 -12.67548 -0.5912037
2.179748 -12.67547 -0.5905457
2.148961 -12.67546 -0.5899162
2.118187 -12.67544 -0.5893173
2.087424 -12.67543 -0.588747
2.056672 -12.67542 -0.5882053
2.025931 -12.67541 -0.5876923
1.995199 -12.67539 -0.5872078
1.964477 -12.67538 -0.5867538
1.933764 -12.67537 -0.5863266
1.903059 -12.67536 -0.5859299
1.872361 -12.67534 -0.5855618
1.841671 -12.67533 -0.5852242
1.810987 -12.67532 -0.5849133
1.780309 -12.6753 -0.584631
1.749636 -12.67529 -0.5843792
1.718968 -12.67528 -0.5841541
1.701649 -13.38643 -0.8025093
1.701983 -15.49775 -1.451136
1.69081 -17.71887 -2.133476
1.678752 -21.26114 -3.22176
1.659433 -26.99997 -4.984949
1.585028 -26.99997 -4.984827
1.510622 -26.99997 -4.984827
1.43622 -26.99997 -4.984797
1.361816 -26.99997 -4.984949
1.287407 -26.99997 -4.985102
1.216903 -26.66852 -4.883469
1.223405 -21.28272 -3.228758
1.225444 -17.98541 -2.215754
1.233312 -15.37145 -1.412701
1.234939 -13.6828 -0.8939686
1.228375 -12.67815 -0.5854301
1.19769 -12.67812 -0.5856934
1.167001 -12.6781 -0.5859833
1.136305 -12.67807 -0.5863037
1.105603 -12.67805 -0.5866528
1.074893 -12.67803 -0.5870304
1.044176 -12.678 -0.5874367
1.01345 -12.67798 -0.5878716
0.982715 -12.67796 -0.5883369
0.9519707 -12.67793 -0.5888309
0.9212163 -12.67791 -0.5893517
0.8904513 -12.67789 -0.5899029
0.8596749 -12.67786 -0.5904846
0.8288866 -12.67784 -0.5910931
0.798086 -12.67782 -0.591732
0.7672724 -12.67779 -0.5923996
0.7364451 -12.67777 -0.5930958
0.7056038 -12.67775 -0.5938225
0.6747475 -12.67772 -0.5945778
0.643876 -12.6777 -0.5953617
0.6129884 -12.67768 -0.5961761
0.5820844 -12.67765 -0.5970192
0.5511633 -12.67763 -0.5978909
0.5202244 -12.6776 -0.598793
0.4892673 -12.67758 -0.5997238
0.4582912 -12.67756 -0.6006851
0.4272955 -12.67753 -0.601675
0.3962798 -12.67751 -0.6026955
0.3652437 -12.67749 -0.6037445
0.334186 -12.67746 -0.6048241
0.3031064 -12.67744 -0.6059322
0.2720043 -12.67741 -0.6070709
0.2408791 -12.67739 -0.6082401
0.2097304 -12.67737 -0.6094379
0.1785571 -12.67734 -0.6106663
0.1473589 -12.67732 -0.6119251
0.116135 -12.67729 -0.6132126
0.08488544 -12.67727 -0.6145325
0.05360879 -12.67725 -0.615881
0.02230471 -12.67722 -0.61726
-0.009027172 -12.6772 -0.6186695
-0.04038744 -12.67717 -0.6201096
-0.07177778 -12.67715 -0.6215801
-0.1031975 -12.67713 -0.6230812
-0.1346478 -12.6771 -0.6246128
-0.1661291 -12.67708 -0.626173
-0.1976424 -12.67705 -0.6277657
-0.2291879 -12.67703 -0.6293907
-0.2607667 -12.677 -0.6310444
-0.2923792 -12.67698 -0.6327305
-0.3240262 -12.67696 -0.6344471
-0.3557078 -12.67693 -0.6361942
-0.3874251 -12.67691 -0.6379738
0.862395 -5.974535 1.456875
0.8624633 -5.919842 1.473381
0.8625294 -5.86685 1.489363
0.8625935 -5.815483 1.504847
0.8626557 -5.765665 1.519854
0.862716 -5.717327 1.534405
0.8627746 -5.670403 1.548523
0.8628314 -5.62483 1.562223
0.8628867 -5.580553 1.575529
0.8629404 -5.537514 1.588451
0.8629926 -5.495659 1.601011
0.8630434 -5.454943 1.61322
0.8630928 -5.415318 1.625095
0.8631409 -5.376738 1.636648
0.8631878 -5.339165 1.647892
0.8632334 -5.302557 1.658838
0.8632779 -5.266878 1.6695
0.8633213 -5.23209 1.679886
0.8633636 -5.198164 1.69001
0.8634048 -5.165064 1.699879
0.8634451 -5.132759 1.709501
0.8634844 -5.101223 1.718889
0.8635228 -5.070427 1.72805
0.8635603 -5.040344 1.736992
0.8635969 -5.01095 1.74572
0.8636327 -4.98222 1.754246
0.8636677 -4.954132 1.762573
0.8637019 -4.926666 1.77071
0.8637353 -4.899797 1.778662
0.863768 -4.873508 1.786436
0.8638001 -4.847782 1.794039
0.8638179 -4.822641 1.80146
0.8565809 -4.822634 1.800837
0.849331 -4.822626 1.800205
0.8420678 -4.822617 1.799566
0.8347914 -4.822609 1.798922
0.8275015 -4.822601 1.798267
0.8201978 -4.822594 1.797606
0.8128803 -4.822586 1.796936
0.8055487 -4.822577 1.796259
0.7982031 -4.822569 1.795574
0.790843 -4.822561 1.79488
0.7834681 -4.822552 1.79418
0.7760788 -4.822544 1.79347
0.7686744 -4.822536 1.792753
0.761255 -4.822529 1.792028
0.7538201 -4.822519 1.791294
0.7463699 -4.822512 1.790552
0.7389039 -4.822504 1.789803
0.7314219 -4.822495 1.789045
0.7239241 -4.822487 1.788279
0.71641 -4.822479 1.787504
0.7088794 -4.82247 1.786722
0.7013322 -4.822462 1.785931
0.6937682 -4.822453 1.785131
0.6861871 -4.822445 1.784323
0.6785889 -4.822437 1.783506
0.6709731 -4.822428 1.782682
0.6633397 -4.82242 1.781847
0.6556886 -4.822411 1.781006
0.6480194 -4.822403 1.780153
0.6403319 -4.822393 1.779295
0.6326259 -4.822386 1.778425
0.6249012 -4.822376 1.777548
0.6171579 -4.822369 1.776661
0.6093952 -4.822359 1.775766
0.6016132 -4.822351 1.774862
0.5938119 -4.822342 1.773949
0.5859907 -4.822334 1.773026
0.5781496 -4.822325 1.772095
0.5702881 -4.822317 1.771152
0.5624063 -4.822308 1.770203
0.554504 -4.822298 1.769243
0.5465807 -4.82229 1.768274
0.5386361 -4.822281 1.767298
0.5306704 -4.822273 1.76631
0.522683 -4.822264 1.765312
0.5146739 -4.822254 1.764305
0.5066426 -4.822247 1.763288
0.498589 -4.822237 1.762262
0.4905128 -4.822227 1.761227
0.482414 -4.822218 1.760181
0.4742924 -4.82221 1.759125
0.4661472 -4.822201 1.75806
0.4579784 -4.822191 1.756985
0.4497859 -4.822182 1.755899
0.4415694 -4.822174 1.754803
0.4333284 -4.822165 1.753696
0.425063 -4.822155 1.752581
0.4167726 -4.822145 1.751453
0.4084574 -4.822136 1.750317
0.4001166 -4.822128 1.74917
0.3917502 -4.822119 1.748013
0.3833579 -4.822109 1.746843
0.3749393 -4.8221 1.745665
0.3664943 -4.82209 1.744474
0.3580223 -4.822081 1.743273
0.3495235 -4.822071 1.742062
0.3409974 -4.822062 1.740839
0.3324435 -4.822052 1.739605
0.3238618 -4.822042 1.738359
0.3152519 -4.822033 1.737103
0.3066133 -4.822023 1.735836
0.297946 -4.822014 1.734556
0.2892494 -4.822004 1.733267
0.2805234 -4.821995 1.731964
0.271768 -4.821985 1.730652
0.2629822 -4.821976 1.729326
0.254166 -4.821966 1.727989
0.2453191 -4.821957 1.726641
0.236441 -4.821945 1.725279
0.2275317 -4.821936 1.723907
0.2185905 -4.821926 1.722523
0.2096176 -4.821917 1.721125
0.200612 -4.821905 1.719715
0.191574 -4.821896 1.718294
0.1825027 -4.821886 1.716858
0.1733977 -4.821877 1.715412
0.1642593 -4.821865 1.713951
0.1550867 -4.821856 1.712479
0.1458797 -4.821846 1.710995
0.1366374 -4.821835 1.709496
0.1273599 -4.821825 1.707983
0.1180471 -4.821814 1.706459
0.1086982 -4.821804 1.704922
0.09931262 -4.821793 1.703369
0.08989041 -4.821783 1.701805
0.08043089 -4.821774 1.700226
0.07093415 -4.821762 1.698633
0.06139927 -4.821751 1.697027
0.05182588 -4.821741 1.695406
0.04221386 -4.82173 1.693773
0.03256226 -4.82172 1.692123
0.02287119 -4.821709 1.69046
0.01314017 -4.821697 1.688784
0.003368502 -4.821688 1.687092
-0.006443946 -4.821676 1.685385
-0.01629777 -4.821665 1.683664
-0.02619332 -4.821653 1.681929
-0.03613131 -4.821644 1.680176
-0.04611199 -4.821632 1.67841
-0.05613595 -4.821621 1.676628
-0.06620356 -4.821609 1.674829
-0.07631563 -4.821598 1.673018
-0.08647182 -4.821587 1.671188
-0.09667294 -4.821575 1.669344
-0.10692 -4.821564 1.667484
-0.1172135 -4.821552 1.665607
-0.127553 -4.821541 1.663713
-0.1379399 -4.821529 1.661804
-0.1483743 -4.821518 1.659878
-0.1588572 -4.821507 1.657936
-0.1693882 -4.821495 1.655975
-0.1799691 -4.821484 1.653999
-0.1905995 -4.821472 1.652004
-0.2012805 -4.821459 1.649994
-0.2120122 -4.821447 1.647964
-0.2227953 -4.821436 1.645918
-0.2336304 -4.821424 1.643854
-0.2445179 -4.821411 1.641771
-0.255459 -4.8214 1.639671
-0.2664536 -4.821386 1.637552
-0.2775027 -4.821375 1.635414
-0.2886066 -4.821363 1.633257
-0.2997665 -4.82135 1.631083
-0.3109825 -4.821339 1.628889
-0.3222556 -4.821325 1.626675
-0.333586 -4.821312 1.624441
-0.3449746 -4.821301 1.622189
-0.356422 -4.821287 1.619917
-0.367929 -4.821274 1.617624
-0.3794963 -4.821262 1.615311
-0.3911249 -4.821249 1.612978
-0.4028145 -4.821236 1.610624
-0.4145664 -4.821222 1.608248
-0.4263818 -4.821209 1.605852
-0.4382606 -4.821196 1.603436
-0.4502043 -4.821182 1.600996
-0.4622128 -4.821169 1.598536
-0.4742875 -4.821156 1.596054
-0.4864289 -4.821142 1.59355
-0.4986382 -4.821129 1.591022
-0.5109156 -4.821115 1.588472
-0.5232624 -4.821102 1.585899
-0.5356789 -4.821089 1.583303
-0.5481661 -4.821074 1.580685
-0.5607253 -4.82106 1.578043
-0.5733572 -4.821047 1.575375
-0.5860627 -4.821032 1.572685
-0.598842 -4.821018 1.569969
-0.6116962 -4.821003 1.56723
-0.6246269 -4.82099 1.564465
-0.6376345 -4.820974 1.561674
-0.6507202 -4.820961 1.558859
-0.6638847 -4.820946 1.556017
-0.6771287 -4.82093 1.55315
25.85996 -26.99997 -8.302668
25.71161 -26.99997 -8.269831
25.56415 -26.99997 -8.237238
25.41758 -26.99997 -8.205042
25.2719 -26.99997 -8.173059
25.12707 -26.99997 -8.141413
24.98309 -26.99997 -8.11001
24.83997 -26.99997 -8.078913
24.69768 -26.99997 -8.04809
24.55621 -26.99997 -8.017542
24.41556 -26.99997 -7.987299
24.27572 -26.99997 -7.9573
24.13667 -26.99997 -7.927576
23.99842 -26.99997 -7.898096
23.86093 -26.99997 -7.868891
23.72422 -26.99997 -7.83993
23.58827 -26.99997 -7.811274
23.45306 -26.99997 -7.782831
23.3186 -26.99997 -7.754663
23.18487 -26.99997 -7.726709
23.05187 -26.99997 -7.69903
22.91959 -26.99997 -7.671595
22.78802 -26.99997 -7.644403
22.65714 -26.99997 -7.617487
22.52695 -26.99997 -7.590723
12.55278 -15.52413 -2.82303
12.48471 -15.5242 -2.809175
12.417 -15.52428 -2.795443
12.34963 -15.52436 -2.78183
12.28261 -15.52443 -2.768335
12.21593 -15.52451 -2.754959
12.14958 -15.52458 -2.741699
9.731631 -12.66136 -1.566635
9.680428 -12.66127 -1.55644
9.629478 -12.66118 -1.546335
9.57878 -12.66109 -1.536318
9.528335 -12.661 -1.526386
9.478135 -12.66091 -1.516542
9.428179 -12.66083 -1.506783
9.378465 -12.66074 -1.497107
9.328991 -12.66066 -1.487516
9.279752 -12.66057 -1.478008
9.230748 -12.66048 -1.468582
9.181975 -12.6604 -1.459236
9.133432 -12.66031 -1.449972
9.085113 -12.66023 -1.440788
9.037019 -12.66015 -1.431684
8.989145 -12.66006 -1.422657
8.941491 -12.65998 -1.41371
8.894053 -12.6599 -1.404837
8.84683 -12.65982 -1.396042
8.799818 -12.65973 -1.387323
8.753017 -12.65965 -1.378679
8.706421 -12.65957 -1.370108
8.66003 -12.65949 -1.361612
8.613845 -12.65941 -1.353189
8.567858 -12.65933 -1.344839
8.522071 -12.65925 -1.336559
8.476478 -12.65917 -1.328352
8.43108 -12.65909 -1.320215
8.385873 -12.65901 -1.312147
8.340858 -12.65893 -1.30415
8.296031 -12.65886 -1.296221
8.25139 -12.65878 -1.288361
8.206932 -12.6587 -1.280567
8.162657 -12.65862 -1.272842
8.118563 -12.65855 -1.265182
8.074646 -12.65847 -1.257589
8.030905 -12.65839 -1.250061
7.98734 -12.65832 -1.242598
7.943947 -12.65824 -1.235199
7.900725 -12.65817 -1.227865
7.857673 -12.65809 -1.220594
7.814786 -12.65802 -1.213387
7.772066 -12.65794 -1.20624
7.729507 -12.65787 -1.199156
7.687114 -12.65779 -1.192133
7.644879 -12.65772 -1.185173
7.602803 -12.65765 -1.17827
7.560884 -12.65757 -1.171431
7.51912 -12.6575 -1.164648
7.477509 -12.65743 -1.157925
7.436051 -12.65736 -1.151262
7.394744 -12.65728 -1.144655
7.353583 -12.65721 -1.138107
7.32729 -12.6825 -1.140812
7.327158 -12.75331 -1.160013
7.327025 -12.82486 -1.179451
7.32689 -12.89719 -1.199131
7.326755 -12.97029 -1.219059
7.326617 -13.04418 -1.239235
7.326478 -13.11887 -1.259668
7.326338 -13.1944 -1.280361
7.326196 -13.27075 -1.301319
7.326052 -13.34796 -1.322546
7.325907 -13.42604 -1.344049
7.32576 -13.505 -1.365831
6.819767 -12.63451 -1.050306
6.78077 -12.63472 -1.044636
6.741896 -12.63494 -1.039019
6.703146 -12.63515 -1.033449
6.664517 -12.63537 -1.027933
6.626006 -12.63558 -1.022465
6.587615 -12.63579 -1.017048
6.549341 -12.636 -1.011679
6.511185 -12.63621 -1.006359
6.473142 -12.63642 -1.001087
6.435214 -12.63663 -0.9958649
6.397398 -12.63684 -0.9906902
6.359692 -12.63704 -0.9855633
6.322098 -12.63725 -0.9804821
6.284612 -12.63745 -0.9754505
6.247234 -12.63766 -0.9704647
6.209963 -12.63786 -0.9655247
6.172797 -12.63806 -0.9606323
6.135736 -12.63826 -0.9557858
6.098777 -12.63846 -0.950983
6.061921 -12.63866 -0.9462261
6.025166 -12.63886 -0.941515
5.98851 -12.63906 -0.9368477
5.951953 -12.63926 -0.9322262
5.915495 -12.63945 -0.9276485
5.879134 -12.63965 -0.9231148
5.842867 -12.63984 -0.9186249
5.806695 -12.64004 -0.9141788
5.770617 -12.64023 -0.9097748
5.73463 -12.64042 -0.9054146
5.698736 -12.64062 -0.9010963
5.662932 -12.64081 -0.896822
5.627218 -12.641 -0.8925896
5.591592 -12.64119 -0.8883991
5.556054 -12.64138 -0.8842506
5.520602 -12.64157 -0.8801422
5.485235 -12.64175 -0.8760757
5.449954 -12.64194 -0.8720512
5.414755 -12.64213 -0.8680668
5.37964 -12.64231 -0.8641243
5.344606 -12.6425 -0.8602219
5.309652 -12.64268 -0.8563595
5.274779 -12.64287 -0.8525352
5.239985 -12.64305 -0.848753
5.205268 -12.64323 -0.8450108
5.170629 -12.64341 -0.8413067
5.136066 -12.64359 -0.8376408
5.101579 -12.64377 -0.8340168
5.067165 -12.64396 -0.8304291
5.032826 -12.64413 -0.8268814
4.998559 -12.64431 -0.8233719
4.964363 -12.64449 -0.8199005
4.930239 -12.64467 -0.8164673
4.896185 -12.64485 -0.8130722
4.8622 -12.64502 -0.8097134
4.828284 -12.6452 -0.8063927
4.794435 -12.64537 -0.8031101
4.760653 -12.64555 -0.7998657
4.726937 -12.64572 -0.7966576
4.693286 -12.64589 -0.7934856
4.659699 -12.64607 -0.79035
4.626176 -12.64624 -0.7872505
4.592715 -12.64641 -0.7841892
4.559317 -12.64658 -0.7811623
4.52598 -12.64675 -0.7781734
4.492702 -12.64692 -0.775219
4.459484 -12.64709 -0.7723007
4.427894 -12.65262 -0.7711697
4.428449 -12.76927 -0.8063393
4.429017 -12.88845 -0.8423061
4.429597 -13.01025 -0.879097
4.43019 -13.13477 -0.9167366
4.430797 -13.26209 -0.9552593
4.431417 -13.39232 -0.9946918
4.432052 -13.52556 -1.035069
4.432701 -13.66191 -1.076424
4.433366 -13.80149 -1.118792
4.104868 -12.67615 -0.7513371
4.072173 -12.67614 -0.7487717
4.039528 -12.67612 -0.7462425
4.006934 -12.67611 -0.7437477
3.974389 -12.6761 -0.7412853
3.941895 -12.67609 -0.7388573
3.909447 -12.67608 -0.7364635
3.877048 -12.67607 -0.7341042
3.844696 -12.67605 -0.7317772
3.812389 -12.67604 -0.7294846
3.780128 -12.67603 -0.7272243
3.747913 -12.67602 -0.7249966
3.71574 -12.67601 -0.722805
3.683612 -12.67599 -0.720644
3.651526 -12.67598 -0.7185154
3.619483 -12.67597 -0.7164211
3.587481 -12.67596 -0.7143593
3.555519 -12.67595 -0.7123299
3.523597 -12.67594 -0.710331
3.491716 -12.67592 -0.7083683
3.459872 -12.67591 -0.7064342
3.428067 -12.6759 -0.7045345
3.396299 -12.67589 -0.7026653
3.364568 -12.67588 -0.7008305
3.332872 -12.67586 -0.6990261
3.301212 -12.67585 -0.6972542
3.269588 -12.67584 -0.6955128
3.237997 -12.67583 -0.6938038
3.206439 -12.67582 -0.6921272
3.174914 -12.67581 -0.6904812
3.143422 -12.67579 -0.6888676
3.111961 -12.67578 -0.6872845
3.080531 -12.67577 -0.6857319
3.049132 -12.67576 -0.6842117
3.017761 -12.67574 -0.6827221
2.986421 -12.67573 -0.681263
2.955108 -12.67572 -0.6798344
2.923823 -12.67571 -0.6784382
2.892566 -12.6757 -0.6770725
2.861335 -12.67568 -0.6757374
2.83013 -12.67567 -0.6744328
2.79895 -12.67566 -0.6731606
2.767795 -12.67565 -0.671917
2.736664 -12.67564 -0.6707039
2.705557 -12.67562 -0.6695213
2.674472 -12.67561 -0.6683712
2.64341 -12.6756 -0.6672497
2.612369 -12.67559 -0.6661587
2.58135 -12.67557 -0.6650982
2.550351 -12.67556 -0.6640682
2.519372 -12.67555 -0.6630669
2.488412 -12.67554 -0.662096
2.457471 -12.67552 -0.6611576
2.426548 -12.67551 -0.6602459
2.395642 -12.6755 -0.6593666
2.364753 -12.67549 -0.6585159
2.333881 -12.67547 -0.6576958
2.303025 -12.67546 -0.6569061
2.272183 -12.67545 -0.6561451
2.241356 -12.67544 -0.6554146
2.210544 -12.67542 -0.6547127
2.179744 -12.67541 -0.6540413
2.148958 -12.6754 -0.6534004
2.118183 -12.67539 -0.6527882
2.087421 -12.67537 -0.6522064
2.056669 -12.67536 -0.6516533
2.025928 -12.67535 -0.6511307
1.995197 -12.67534 -0.6506367
1.964475 -12.67532 -0.6501713
1.933762 -12.67531 -0.6497364
1.903057 -12.6753 -0.649332
1.872359 -12.67528 -0.6489563
1.841669 -12.67527 -0.6486111
1.810985 -12.67526 -0.6482944
1.780307 -12.67525 -0.6480064
1.749635 -12.67523 -0.6477489
1.718967 -12.67522 -0.6475201
1.70178 -13.39342 -0.8725739
1.70214 -15.50777 -1.535479
1.690932 -17.72853 -2.23173
1.67875 -21.26099 -3.339302
1.659433 -26.99997 -5.138788
1.585026 -26.99997 -5.138697
1.510624 -26.99997 -5.138636
1.43622 -26.99997 -5.138666
1.361814 -26.99997 -5.138788
1.287407 -26.99997 -5.13891
1.216877 -26.67068 -5.035887
1.223405 -21.28274 -3.346497
1.225423 -17.98658 -2.313036
1.233256 -15.37411 -1.493946
1.234891 -13.68481 -0.9643478
1.228375 -12.67813 -0.6488361
1.197691 -12.67811 -0.6491051
1.167001 -12.67809 -0.6494007
1.136306 -12.67806 -0.6497288
1.105603 -12.67804 -0.6500835
1.074893 -12.67802 -0.6504688
1.044176 -12.67799 -0.6508846
1.01345 -12.67797 -0.651329
0.9827156 -12.67795 -0.6518021
0.9519714 -12.67792 -0.6523056
0.9212169 -12.6779 -0.6528397
0.8904519 -12.67788 -0.6534023
0.8596755 -12.67785 -0.6539936
0.8288875 -12.67783 -0.6546154
0.7980869 -12.6778 -0.6552677
0.7672733 -12.67778 -0.6559486
0.736446 -12.67776 -0.6566601
0.7056047 -12.67773 -0.6574001
0.6747484 -12.67771 -0.6581726
0.643877 -12.67769 -0.6589718
0.6129894 -12.67766 -0.6598034
0.5820855 -12.67764 -0.6606636
0.5511643 -12.67762 -0.6615543
0.5202255 -12.67759 -0.6624737
0.4892685 -12.67757 -0.6634235
0.4582924 -12.67754 -0.6644039
0.4272968 -12.67752 -0.6654148
0.3962812 -12.6775 -0.6664562
0.365245 -12.67747 -0.6675262
0.3341873 -12.67745 -0.6686287
0.3031077 -12.67743 -0.6697598
0.2720057 -12.6774 -0.6709232
0.2408807 -12.67738 -0.6721153
0.2097319 -12.67735 -0.6733379
0.1785586 -12.67733 -0.6745911
0.1473604 -12.67731 -0.6758766
0.1161367 -12.67728 -0.6771908
0.08488701 -12.67726 -0.6785374
0.05361046 -12.67723 -0.6799126
0.02230647 -12.67721 -0.6813202
-0.009025313 -12.67719 -0.6827583
-0.04038573 -12.67716 -0.6842289
-0.07177596 -12.67714 -0.6857281
-0.1031954 -12.67711 -0.6872597
-0.1346458 -12.67709 -0.6888237
-0.1661275 -12.67706 -0.6904182
-0.1976405 -12.67704 -0.6920433
-0.229186 -12.67702 -0.6937008
-0.2607647 -12.67699 -0.6953888
-0.2923772 -12.67697 -0.6971092
-0.3240238 -12.67694 -0.6988602
-0.3557057 -12.67692 -0.7006454
-0.3874229 -12.6769 -0.7024612
0.8623848 -5.97459 1.435421
0.8624532 -5.919893 1.452267
0.8625195 -5.866899 1.468576
0.8625838 -5.815531 1.484379
0.862646 -5.765713 1.499695
0.8627065 -5.717373 1.514545
0.8627652 -5.670448 1.528954
0.8628222 -5.624874 1.542938
0.8628777 -5.580595 1.556517
0.8629315 -5.537554 1.569706
0.8629838 -5.495699 1.582523
0.8630347 -5.454981 1.594984
0.8630843 -5.415354 1.607103
0.8631325 -5.376776 1.618893
0.8631794 -5.339201 1.630367
0.8632252 -5.302591 1.641541
0.8632697 -5.266911 1.65242
0.8633133 -5.232124 1.663021
0.8633556 -5.198195 1.673353
0.863397 -5.165094 1.683424
0.8634374 -5.13279 1.693247
0.8634768 -5.101252 1.702827
0.8635152 -5.070456 1.712175
0.8635527 -5.040373 1.7213
0.8635895 -5.010977 1.730209
0.8636253 -4.982246 1.738911
0.8636605 -4.954159 1.74741
0.8636947 -4.926691 1.755713
0.8637283 -4.899822 1.76383
0.8637611 -4.873533 1.771765
0.8637932 -4.847805 1.779522
0.863818 -4.822641 1.787104
0.856581 -4.822634 1.786469
0.849331 -4.822624 1.785824
0.842068 -4.822617 1.785173
0.8347914 -4.822609 1.784513
0.8275015 -4.822601 1.783846
0.8201979 -4.822594 1.783171
0.8128805 -4.822584 1.782488
0.805549 -4.822577 1.781796
0.7982032 -4.822569 1.781097
0.7908431 -4.822559 1.78039
0.7834684 -4.822552 1.779675
0.7760789 -4.822544 1.77895
0.7686746 -4.822536 1.778217
0.7612552 -4.822527 1.777477
0.7538203 -4.822519 1.77673
0.74637 -4.822512 1.775972
0.7389041 -4.822502 1.775208
0.7314221 -4.822495 1.774435
0.7239242 -4.822487 1.773653
0.7164102 -4.822477 1.772861
0.7088796 -4.82247 1.772064
0.7013323 -4.82246 1.771255
0.6937684 -4.822453 1.770439
0.6861873 -4.822445 1.769615
0.678589 -4.822435 1.768782
0.6709732 -4.822428 1.767939
0.66334 -4.822418 1.767088
0.6556889 -4.822411 1.76623
0.6480197 -4.822401 1.76536
0.6403322 -4.822393 1.764482
0.6326261 -4.822386 1.763596
0.6249015 -4.822376 1.762701
0.617158 -4.822369 1.761797
0.6093954 -4.822359 1.760881
0.6016135 -4.82235 1.759958
0.5938121 -4.822342 1.759027
0.5859908 -4.822332 1.758085
0.5781497 -4.822325 1.757135
0.5702882 -4.822315 1.756174
0.5624066 -4.822308 1.755205
0.5545042 -4.822298 1.754227
0.5465808 -4.822289 1.753237
0.5386363 -4.822281 1.752239
0.5306706 -4.822271 1.75123
0.5226832 -4.822264 1.750214
0.5146741 -4.822254 1.749186
0.5066428 -4.822245 1.748148
0.4985892 -4.822237 1.747101
0.4905132 -4.822227 1.746044
0.4824142 -4.822218 1.744976
0.4742925 -4.822208 1.7439
0.4661474 -4.822201 1.742813
0.4579788 -4.822191 1.741714
0.4497861 -4.822182 1.740606
0.4415697 -4.822172 1.739489
0.4333287 -4.822165 1.738359
0.4250632 -4.822155 1.737221
0.416773 -4.822145 1.736071
0.4084577 -4.822136 1.734911
0.4001169 -4.822126 1.73374
0.3917505 -4.822117 1.732557
0.3833582 -4.822109 1.731365
0.3749395 -4.8221 1.730162
0.3664945 -4.82209 1.728947
0.3580227 -4.822081 1.72772
0.3495239 -4.822071 1.726484
0.3409977 -4.822062 1.725237
0.332444 -4.822052 1.723978
0.323862 -4.822042 1.722706
0.3152522 -4.822033 1.721424
0.3066135 -4.822023 1.720131
0.2979462 -4.822014 1.718826
0.2892497 -4.822004 1.717508
0.2805238 -4.821995 1.716181
0.2717682 -4.821985 1.71484
0.2629824 -4.821976 1.713488
0.2541662 -4.821964 1.712124
0.2453195 -4.821955 1.710747
0.2364414 -4.821945 1.709358
0.2275319 -4.821936 1.707956
0.2185909 -4.821926 1.706543
0.2096179 -4.821915 1.705118
0.2006124 -4.821905 1.70368
0.1915741 -4.821896 1.702229
0.182503 -4.821886 1.700764
0.1733982 -4.821875 1.699287
0.1642597 -4.821865 1.697798
0.1550872 -4.821856 1.696295
0.14588 -4.821844 1.694778
0.1366377 -4.821835 1.693249
0.1273605 -4.821825 1.691708
0.1180475 -4.821814 1.690151
0.1086985 -4.821804 1.688581
0.09931307 -4.821793 1.686998
0.08989073 -4.821783 1.6854
0.0804313 -4.821772 1.68379
0.07093444 -4.821762 1.682165
0.06139943 -4.821751 1.680525
0.05182614 -4.821741 1.678871
0.0422141 -4.82173 1.677204
0.0325626 -4.821718 1.675522
0.02287163 -4.821709 1.673824
0.01314049 -4.821697 1.672112
0.003369154 -4.821686 1.670385
-0.006443548 -4.821676 1.668644
-0.01629739 -4.821665 1.666887
-0.02619283 -4.821653 1.665115
-0.03613097 -4.821642 1.663328
-0.04611154 -4.821632 1.661526
-0.05613564 -4.821621 1.659706
-0.06620314 -4.821609 1.657873
-0.07631511 -4.821598 1.656021
-0.0864712 -4.821587 1.654156
-0.09667258 -4.821575 1.652273
-0.1069196 -4.821564 1.650373
-0.117213 -4.821552 1.648458
-0.1275525 -4.821541 1.646526
-0.1379393 -4.821529 1.644579
-0.1483738 -4.821518 1.642612
-0.1588567 -4.821507 1.640631
-0.169388 -4.821495 1.63863
-0.1799688 -4.821484 1.636612
-0.1905992 -4.82147 1.634577
-0.2012802 -4.821459 1.632524
-0.2120117 -4.821447 1.630455
-0.2227949 -4.821436 1.628366
-0.2336296 -4.821423 1.626259
-0.2445177 -4.821411 1.624134
-0.2554587 -4.8214 1.62199
-0.2664532 -4.821386 1.619827
-0.2775023 -4.821375 1.617645
-0.2886063 -4.821362 1.615446
-0.299766 -4.82135 1.613226
-0.3109822 -4.821337 1.610987
-0.322255 -4.821325 1.608727
-0.3335856 -4.821312 1.606447
-0.3449744 -4.821299 1.604149
-0.3564216 -4.821287 1.60183
-0.3679285 -4.821274 1.599489
-0.3794957 -4.82126 1.59713
-0.3911241 -4.821247 1.594748
-0.4028142 -4.821236 1.592346
-0.4145659 -4.821222 1.589922
-0.4263811 -4.821209 1.587477
-0.43826 -4.821196 1.585011
-0.4502037 -4.821182 1.582521
-0.4622121 -4.821169 1.580009
-0.474287 -4.821156 1.577477
-0.4864284 -4.821142 1.574921
-0.4986374 -4.821129 1.572342
-0.5109153 -4.821115 1.569738
-0.5232616 -4.821102 1.567114
-0.5356783 -4.821087 1.564465
-0.5481657 -4.821074 1.561792
-0.560725 -4.82106 1.559095
-0.5733564 -4.821045 1.556374
-0.5860619 -4.821032 1.553627
-0.5988412 -4.821016 1.550856
-0.6116953 -4.821003 1.548059
-0.6246263 -4.820988 1.545238
-0.6376341 -4.820974 1.542391
-0.6507194 -4.820959 1.539518
-0.6638839 -4.820946 1.536617
-0.6771282 -4.82093 1.533691
25.85996 -26.99997 -8.52099
25.71161 -26.99997 -8.487452
25.56415 -26.99997 -8.454248
25.41759 -26.99997 -8.42135
25.27189 -26.99997 -8.388758
25.12707 -26.99997 -8.35644
24.98309 -26.99997 -8.324427
24.83997 -26.99997 -8.292688
24.69768 -26.99997 -8.261255
24.55621 -26.99997 -8.230127
24.41557 -26.99997 -8.199244
24.27572 -26.99997 -8.168604
24.13667 -26.99997 -8.1383
23.99842 -26.99997 -8.10821
23.86093 -26.99997 -8.078424
23.72422 -26.99997 -8.048914
23.58826 -26.99997 -8.019678
23.45306 -26.99997 -7.990656
23.3186 -26.99997 -7.961908
23.18487 -26.99997 -7.933405
23.05188 -26.99997 -7.905176
22.91959 -26.99997 -7.877161
22.78801 -26.99997 -7.849451
22.65714 -26.99997 -7.821955
22.52695 -26.99997 -7.794672
12.55278 -15.52412 -2.930609
12.48471 -15.5242 -2.916473
12.41699 -15.52427 -2.902462
12.34963 -15.52435 -2.888575
12.2826 -15.52443 -2.874807
12.21592 -15.5245 -2.861162
12.14958 -15.52458 -2.847631
9.731623 -12.66134 -1.648819
9.680418 -12.66126 -1.638418
9.629469 -12.66117 -1.628107
9.578772 -12.66108 -1.617887
9.528325 -12.66099 -1.607756
9.478127 -12.6609 -1.597713
9.428171 -12.66082 -1.587757
9.378457 -12.66073 -1.577885
9.328983 -12.66064 -1.5681
9.279744 -12.66056 -1.558399
9.230741 -12.66047 -1.548784
9.181968 -12.66039 -1.539249
9.133423 -12.6603 -1.529799
9.085105 -12.66022 -1.52043
9.037011 -12.66014 -1.511141
8.989138 -12.66005 -1.50193
8.941484 -12.65997 -1.492802
8.894047 -12.65989 -1.483751
8.846822 -12.65981 -1.474777
8.799811 -12.65972 -1.465883
8.753009 -12.65964 -1.457064
8.706414 -12.65956 -1.44832
8.660024 -12.65948 -1.439651
8.613837 -12.6594 -1.431059
8.567851 -12.65932 -1.422541
8.522062 -12.65924 -1.414093
8.476471 -12.65916 -1.40572
8.431073 -12.65908 -1.397419
8.385867 -12.659 -1.389189
8.340852 -12.65892 -1.381029
8.296024 -12.65885 -1.37294
8.251382 -12.65877 -1.36492
8.206925 -12.65869 -1.35697
8.16265 -12.65861 -1.349089
8.118556 -12.65854 -1.341274
8.074639 -12.65846 -1.333527
8.0309 -12.65838 -1.325848
7.987335 -12.65831 -1.318233
7.943942 -12.65823 -1.310686
7.900719 -12.65816 -1.303204
7.857666 -12.65808 -1.295786
7.814779 -12.65801 -1.288431
7.772059 -12.65793 -1.281141
7.729502 -12.65786 -1.273914
7.687107 -12.65778 -1.266748
7.644873 -12.65771 -1.259647
7.602797 -12.65764 -1.252605
7.560878 -12.65757 -1.245626
7.519114 -12.65749 -1.238707
7.477504 -12.65742 -1.23185
7.436046 -12.65735 -1.22505
7.394738 -12.65728 -1.218311
7.353578 -12.6572 -1.211632
7.327264 -12.68246 -1.214378
7.327133 -12.75326 -1.233967
7.327 -12.82482 -1.253798
7.326865 -12.89714 -1.273874
7.326729 -12.97024 -1.294203
7.326591 -13.04413 -1.314789
7.326452 -13.11883 -1.335634
7.326312 -13.19435 -1.356747
7.326169 -13.2707 -1.378128
7.326026 -13.34791 -1.399784
7.325881 -13.42599 -1.421721
7.325733 -13.50495 -1.443941
6.819475 -12.63396 -1.121859
6.78048 -12.63418 -1.116076
6.741611 -12.63439 -1.110346
6.702861 -12.63461 -1.104666
6.664234 -12.63482 -1.099037
6.625727 -12.63503 -1.09346
6.587339 -12.63525 -1.087933
6.549067 -12.63546 -1.082457
6.510913 -12.63567 -1.07703
6.472873 -12.63588 -1.071653
6.434947 -12.63609 -1.066324
6.397133 -12.6363 -1.061045
6.35943 -12.6365 -1.055815
6.321837 -12.63671 -1.050634
6.284355 -12.63691 -1.0455
6.246979 -12.63712 -1.040413
6.20971 -12.63732 -1.035376
6.172547 -12.63752 -1.030384
6.135487 -12.63773 -1.025438
6.098531 -12.63793 -1.02054
6.061678 -12.63813 -1.015688
6.024924 -12.63833 -1.010881
5.988272 -12.63853 -1.006123
5.951717 -12.63873 -1.001408
5.915261 -12.63892 -0.9967384
5.878901 -12.63912 -0.9921131
5.842638 -12.63931 -0.9875317
5.806468 -12.63951 -0.982996
5.770391 -12.6397 -0.9785042
5.734407 -12.6399 -0.9740562
5.698515 -12.64009 -0.9696522
5.662713 -12.64028 -0.9652901
5.627002 -12.64047 -0.9609737
5.591377 -12.64066 -0.9566975
5.555841 -12.64085 -0.9524651
5.520391 -12.64104 -0.9482765
5.485027 -12.64123 -0.944128
5.449748 -12.64142 -0.9400234
5.414551 -12.64161 -0.9359589
5.379437 -12.64179 -0.9319363
5.344405 -12.64198 -0.9279537
5.309455 -12.64216 -0.924015
5.274584 -12.64235 -0.9201145
5.239791 -12.64253 -0.916256
5.205077 -12.64271 -0.9124374
5.170439 -12.6429 -0.908659
5.135878 -12.64308 -0.9049206
5.101393 -12.64326 -0.9012222
5.066982 -12.64344 -0.8975639
5.032643 -12.64362 -0.8939438
4.998379 -12.6438 -0.8903637
4.964185 -12.64398 -0.8868217
4.930063 -12.64415 -0.8833199
4.89601 -12.64433 -0.8798561
4.862028 -12.64451 -0.8764305
4.828113 -12.64468 -0.873045
4.794267 -12.64486 -0.8696957
4.760487 -12.64504 -0.8663845
4.726772 -12.64521 -0.8631115
4.693123 -12.64538 -0.8598766
4.659539 -12.64556 -0.856678
4.626017 -12.64573 -0.8535175
4.592558 -12.6459 -0.8503933
4.559161 -12.64607 -0.8473072
4.525826 -12.64624 -0.8442554
4.492551 -12.64641 -0.8412418
4.459334 -12.64658 -0.8382664
4.42797 -12.65288 -0.837368
4.428527 -12.76953 -0.873251
4.429095 -12.88872 -0.9099483
4.429677 -13.01053 -0.9474831
4.43027 -13.13505 -0.9858856
4.430878 -13.26238 -1.025188
4.431499 -13.39262 -1.065422
4.432135 -13.52587 -1.106617
4.432786 -13.66222 -1.148809
4.433452 -13.80182 -1.192038
4.104853 -12.67609 -0.817028
4.072157 -12.67607 -0.8144112
4.039512 -12.67606 -0.8118305
4.006918 -12.67605 -0.8092842
3.974374 -12.67604 -0.8067722
3.94188 -12.67603 -0.8042965
3.909433 -12.67602 -0.8018551
3.877033 -12.67601 -0.7994461
3.844681 -12.67599 -0.7970734
3.812375 -12.67598 -0.794733
3.780115 -12.67597 -0.7924271
3.747899 -12.67596 -0.7901554
3.715727 -12.67595 -0.7879181
3.683599 -12.67593 -0.7857151
3.651514 -12.67592 -0.7835445
3.61947 -12.67591 -0.7814064
3.587468 -12.6759 -0.7793026
3.555507 -12.67589 -0.7772312
3.523586 -12.67588 -0.7751942
3.491704 -12.67586 -0.7731895
3.459861 -12.67585 -0.7712193
3.428055 -12.67584 -0.7692795
3.396288 -12.67583 -0.767374
3.364557 -12.67582 -0.765501
3.332861 -12.67581 -0.7636604
3.301202 -12.67579 -0.7618523
3.269577 -12.67578 -0.7600765
3.237987 -12.67577 -0.7583332
3.206429 -12.67576 -0.7566223
3.174904 -12.67575 -0.7549419
3.143412 -12.67573 -0.7532959
3.111952 -12.67572 -0.7516804
3.080522 -12.67571 -0.7500973
3.049122 -12.6757 -0.7485466
3.017753 -12.67568 -0.7470264
2.986412 -12.67567 -0.7455387
2.9551 -12.67566 -0.7440815
2.923815 -12.67565 -0.7426567
2.892558 -12.67564 -0.7412624
2.861327 -12.67562 -0.7399006
2.830122 -12.67561 -0.7385712
2.798942 -12.6756 -0.7372723
2.767787 -12.67559 -0.7360039
2.736657 -12.67558 -0.734766
2.705549 -12.67556 -0.7335606
2.674465 -12.67555 -0.7323856
2.643403 -12.67554 -0.7312412
2.612363 -12.67553 -0.7301292
2.581343 -12.67551 -0.7290459
2.550344 -12.6755 -0.7279949
2.519366 -12.67549 -0.7269745
2.488406 -12.67548 -0.7259846
2.457465 -12.67547 -0.7250252
2.426542 -12.67545 -0.7240982
2.395637 -12.67544 -0.7231998
2.364748 -12.67543 -0.722332
2.333876 -12.67542 -0.7214947
2.30302 -12.6754 -0.7206898
2.272179 -12.67539 -0.7199135
2.241352 -12.67538 -0.7191677
2.21054 -12.67537 -0.7184525
2.17974 -12.67535 -0.7177677
2.148954 -12.67534 -0.7171135
2.11818 -12.67533 -0.7164879
2.087417 -12.67531 -0.7158947
2.056666 -12.6753 -0.7153301
2.025925 -12.67529 -0.7147961
1.995194 -12.67528 -0.7142925
1.964472 -12.67526 -0.7138195
1.933759 -12.67525 -0.713377
1.903054 -12.67524 -0.7129631
1.872357 -12.67523 -0.7125797
1.841667 -12.67521 -0.7122269
1.810983 -12.6752 -0.7119026
1.780306 -12.67519 -0.7116089
1.749633 -12.67517 -0.7113476
1.718965 -12.67516 -0.711113
1.701912 -13.40046 -0.9429836
1.702299 -15.51783 -1.620256
1.691055 -17.73824 -2.330465
1.678749 -21.26083 -3.457266
1.659433 -26.99997 -5.293177
1.585028 -26.99997 -5.293024
1.510624 -26.99997 -5.292994
1.436222 -26.99997 -5.293024
1.361814 -26.99997 -5.293146
1.287409 -26.99997 -5.293299
1.216852 -26.67284 -5.188883
1.223405 -21.28276 -3.464663
1.225402 -17.98775 -2.410685
1.2332 -15.37678 -1.57552
1.234842 -13.68682 -1.035006
1.228375 -12.67812 -0.7124729
1.197691 -12.6781 -0.7127457
1.167002 -12.67807 -0.7130489
1.136306 -12.67805 -0.7133808
1.105604 -12.67803 -0.7137451
1.074894 -12.67801 -0.714138
1.044177 -12.67798 -0.7145615
1.013451 -12.67796 -0.7150135
0.9827161 -12.67793 -0.715498
0.9519719 -12.67791 -0.716011
0.9212176 -12.67789 -0.7165546
0.8904526 -12.67786 -0.7171288
0.8596762 -12.67784 -0.7177334
0.8288882 -12.67782 -0.7183685
0.7980877 -12.67779 -0.7190323
0.7672741 -12.67777 -0.7197285
0.7364468 -12.67775 -0.7204533
0.7056056 -12.67772 -0.7212086
0.6747494 -12.6777 -0.7219963
0.643878 -12.67768 -0.7228127
0.6129905 -12.67765 -0.7236595
0.5820866 -12.67763 -0.7245369
0.5511655 -12.6776 -0.7254467
0.5202267 -12.67758 -0.7263851
0.4892696 -12.67756 -0.727354
0.4582936 -12.67753 -0.7283554
0.4272981 -12.67751 -0.7293854
0.3962825 -12.67749 -0.7304478
0.3652463 -12.67746 -0.7315407
0.3341887 -12.67744 -0.7326641
0.3031093 -12.67741 -0.7338181
0.2720072 -12.67739 -0.7350044
0.2408822 -12.67737 -0.7362213
0.2097334 -12.67734 -0.7374687
0.1785601 -12.67732 -0.7387466
0.1473621 -12.67729 -0.740057
0.1161385 -12.67727 -0.7413998
0.08488864 -12.67725 -0.7427731
0.0536122 -12.67722 -0.7441769
0.02230831 -12.6772 -0.7456131
-0.009023607 -12.67717 -0.7470798
-0.04038392 -12.67715 -0.748579
-0.07177406 -12.67713 -0.7501106
-0.1031937 -12.6771 -0.7516727
-0.1346439 -12.67708 -0.7532673
-0.1661253 -12.67705 -0.7548923
-0.1976383 -12.67703 -0.7565517
-0.2291839 -12.677 -0.7582417
-0.2607627 -12.67698 -0.759964
-0.2923751 -12.67696 -0.7617188
-0.3240218 -12.67693 -0.7635078
-0.3557035 -12.67691 -0.7653275
-0.3874207 -12.67688 -0.7671795
0.8623745 -5.974644 1.413887
0.8624431 -5.919945 1.431074
0.8625095 -5.866951 1.447716
0.8625739 -5.81558 1.463837
0.8626364 -5.765759 1.479462
0.8626971 -5.717419 1.494614
0.8627559 -5.670492 1.509314
0.8628131 -5.624918 1.523581
0.8628685 -5.580637 1.537434
0.8629225 -5.537594 1.55089
0.8629749 -5.495739 1.563967
0.863026 -5.455019 1.576681
0.8630756 -5.415392 1.589045
0.863124 -5.376812 1.601074
0.863171 -5.339235 1.612782
0.8632169 -5.302626 1.62418
0.8632616 -5.266945 1.635281
0.8633052 -5.232157 1.646095
0.8633476 -5.198227 1.656635
0.8633891 -5.165125 1.66691
0.8634295 -5.13282 1.676931
0.8634691 -5.101282 1.686707
0.8635076 -5.070484 1.696245
0.8635453 -5.040401 1.705553
0.8635821 -5.011005 1.714643
0.863618 -4.982275 1.72352
0.8636532 -4.954185 1.732191
0.8636876 -4.926718 1.740664
0.8637212 -4.899849 1.748943
0.863754 -4.873558 1.757038
0.8637862 -4.84783 1.764954
0.8638178 -4.822641 1.772696
0.8565813 -4.822632 1.772047
0.8493313 -4.822624 1.771391
0.8420681 -4.822617 1.770725
0.8347917 -4.822609 1.770054
0.8275017 -4.822601 1.769373
0.8201981 -4.822592 1.768682
0.8128806 -4.822584 1.767986
0.8055491 -4.822577 1.767281
0.7982033 -4.822567 1.766567
0.7908432 -4.822559 1.765846
0.7834684 -4.822552 1.765116
0.7760791 -4.822544 1.764378
0.7686747 -4.822535 1.76363
0.7612553 -4.822527 1.762877
0.7538204 -4.822519 1.762112
0.7463702 -4.82251 1.761341
0.7389041 -4.822502 1.760559
0.7314223 -4.822495 1.759771
0.7239245 -4.822485 1.758972
0.7164105 -4.822477 1.758167
0.7088798 -4.82247 1.757351
0.7013325 -4.82246 1.756527
0.6937686 -4.822453 1.755695
0.6861874 -4.822443 1.754854
0.6785892 -4.822435 1.754004
0.6709734 -4.822428 1.753145
0.6633402 -4.822418 1.752275
0.655689 -4.822411 1.7514
0.6480198 -4.822401 1.750513
0.6403323 -4.822393 1.749619
0.6326263 -4.822384 1.748713
0.6249017 -4.822376 1.747799
0.6171582 -4.822367 1.746878
0.6093956 -4.822359 1.745945
0.6016138 -4.82235 1.745003
0.5938123 -4.822342 1.744051
0.585991 -4.822332 1.743092
0.5781499 -4.822325 1.742121
0.5702885 -4.822315 1.741142
0.5624067 -4.822306 1.740152
0.5545043 -4.822298 1.739153
0.546581 -4.822289 1.738146
0.5386364 -4.822281 1.737127
0.5306708 -4.822271 1.736097
0.5226834 -4.822262 1.73506
0.5146742 -4.822254 1.734011
0.506643 -4.822245 1.732954
0.4985895 -4.822235 1.731886
0.4905134 -4.822227 1.730806
0.4824144 -4.822218 1.729717
0.4742927 -4.822208 1.728619
0.4661477 -4.822199 1.727509
0.4579789 -4.822191 1.726389
0.4497863 -4.822182 1.72526
0.44157 -4.822172 1.724119
0.4333289 -4.822163 1.722967
0.4250635 -4.822155 1.721804
0.4167731 -4.822145 1.720631
0.4084578 -4.822136 1.719448
0.4001171 -4.822126 1.718252
0.3917508 -4.822117 1.717047
0.3833584 -4.822107 1.71583
0.3749399 -4.822098 1.714603
0.3664949 -4.822088 1.713364
0.3580228 -4.822081 1.712112
0.349524 -4.822071 1.710852
0.3409981 -4.822062 1.709578
0.3324442 -4.822052 1.708294
0.3238624 -4.822042 1.706997
0.3152522 -4.822033 1.70569
0.3066138 -4.822023 1.70437
0.2979464 -4.822014 1.703039
0.2892502 -4.822002 1.701694
0.2805239 -4.821993 1.70034
0.2717684 -4.821983 1.698973
0.2629828 -4.821974 1.697592
0.2541666 -4.821964 1.696199
0.2453198 -4.821955 1.694796
0.2364416 -4.821945 1.693378
0.2275323 -4.821936 1.69195
0.2185914 -4.821924 1.690508
0.2096181 -4.821915 1.689053
0.2006127 -4.821905 1.687586
0.1915744 -4.821896 1.686106
0.1825032 -4.821884 1.684612
0.1733985 -4.821875 1.683105
0.1642601 -4.821865 1.681585
0.1550873 -4.821854 1.680052
0.1458803 -4.821844 1.678505
0.136638 -4.821835 1.676945
0.1273607 -4.821823 1.675371
0.1180478 -4.821814 1.673784
0.1086989 -4.821802 1.672182
0.09931326 -4.821793 1.670567
0.08989114 -4.821781 1.668938
0.08043182 -4.821772 1.667294
0.07093494 -4.82176 1.665636
0.06139991 -4.821751 1.663963
0.05182649 -4.821739 1.662277
0.04221455 -4.82173 1.660574
0.03256304 -4.821718 1.658859
0.02287205 -4.821707 1.657127
0.01314089 -4.821697 1.65538
0.003369301 -4.821686 1.65362
-0.006442941 -4.821674 1.651842
-0.01629691 -4.821665 1.650049
-0.02619274 -4.821653 1.648243
-0.03613041 -4.821642 1.64642
-0.04611124 -4.82163 1.644579
-0.05613512 -4.821619 1.642725
-0.06620263 -4.821609 1.640852
-0.07631461 -4.821598 1.638966
-0.08647084 -4.821587 1.637062
-0.09667225 -4.821575 1.635141
-0.1069192 -4.821564 1.633204
-0.1172124 -4.821552 1.631248
-0.1275523 -4.821541 1.629278
-0.137939 -4.821529 1.627291
