-6.134276 -12.65801 -0.3604298
-6.171693 -12.65847 -0.3572922
-6.209219 -12.65894 -0.3541279
-6.246857 -12.65941 -0.3509312
-6.284607 -12.65988 -0.3477058
-6.322472 -12.66035 -0.34445
-6.360452 -12.66083 -0.3411655
-6.398548 -12.6613 -0.3378506
-6.43676 -12.66178 -0.3345032
-6.475092 -12.66226 -0.3311272
-6.513546 -12.66273 -0.3277206
-6.552119 -12.66322 -0.3242817
-6.590816 -12.6637 -0.3208122
-6.629636 -12.66418 -0.3173103
-6.668581 -12.66467 -0.3137779
-6.707654 -12.66516 -0.3102112
-6.746855 -12.66564 -0.3066158
-6.786185 -12.66613 -0.3029861
-6.825645 -12.66663 -0.299324
-6.865237 -12.66712 -0.2956295
-6.904964 -12.66762 -0.2919006
-6.944825 -12.66811 -0.2881393
-6.984823 -12.66861 -0.2843456
-7.024959 -12.66912 -0.2805157
-7.065233 -12.66962 -0.2766533
-7.105649 -12.67012 -0.2727566
-7.298386 -12.94098 -0.2086887
-7.29835 -12.86771 -0.2210579
-7.298316 -12.79523 -0.2332745
-7.298281 -12.72352 -0.2453365
-7.298248 -12.65256 -0.2572517
-7.33377 -12.64333 -0.2553406
-7.374777 -12.64331 -0.2513294
-7.415929 -12.64329 -0.247282
-7.457232 -12.64327 -0.2432003
-7.498685 -12.64325 -0.2390823
-7.540288 -12.64323 -0.2349262
-7.582047 -12.64321 -0.2307358
-7.62396 -12.64319 -0.2265072
-7.666031 -12.64317 -0.2222424
-7.708259 -12.64315 -0.2179394
-7.750649 -12.64313 -0.2136002
-7.793201 -12.64311 -0.2092228
-7.835915 -12.64309 -0.2048054
-7.878796 -12.64306 -0.2003498
-7.921843 -12.64304 -0.1958561
-7.965059 -12.64302 -0.1913242
-8.008446 -12.643 -0.1867523
-8.052005 -12.64298 -0.1821384
-8.095739 -12.64296 -0.1774864
-8.139651 -12.64294 -0.1727943
-8.183738 -12.64292 -0.1680603
-8.228008 -12.6429 -0.1632843
-8.272459 -12.64288 -0.1584682
-8.317095 -12.64286 -0.1536102
-8.361916 -12.64283 -0.1487103
-8.406924 -12.64281 -0.1437683
-8.452124 -12.64279 -0.1387825
-8.497516 -12.64277 -0.1337528
-8.5431 -12.64275 -0.1286793
-8.588881 -12.64273 -0.1235638
-8.634863 -12.6427 -0.1184025
-8.681043 -12.64268 -0.1131973
-8.727428 -12.64266 -0.1079445
-8.774015 -12.64264 -0.1026497
-8.820811 -12.64262 -0.0973053
-8.867817 -12.6426 -0.09191704
-8.915034 -12.64257 -0.08648109
-8.962465 -12.64255 -0.08099747
-9.010113 -12.64253 -0.07546806
-9.057979 -12.64251 -0.06988907
-9.106067 -12.64248 -0.06426239
-9.154378 -12.64246 -0.05858612
-9.202915 -12.64244 -0.05286026
-9.251683 -12.64241 -0.04708481
-9.300681 -12.64239 -0.04125786
-9.349912 -12.64237 -0.03538132
-9.39938 -12.64235 -0.02945328
-9.449086 -12.64232 -0.02347374
-9.499034 -12.6423 -0.0174427
-9.549228 -12.64227 -0.01135826
-9.599667 -12.64225 -0.005220413
-9.650356 -12.64223 0.0009708405
-9.701299 -12.6422 0.007217407
-10.07009 -13.02711 0.1102486
-10.06977 -12.96233 0.1005363
-10.06945 -12.89803 0.09091949
-10.06913 -12.83421 0.08139801
-10.06882 -12.77086 0.07196999
-10.06851 -12.70796 0.06263542
-10.08008 -12.65938 0.05693054
-10.13302 -12.65911 0.06357765
-10.18625 -12.65884 0.07028389
-10.23976 -12.65857 0.07705116
-10.29355 -12.65829 0.08387756
-10.34762 -12.65802 0.09076309
-10.40199 -12.65774 0.09770966
-10.45665 -12.65746 0.1047192
-10.5116 -12.65718 0.1117916
-10.56685 -12.65689 0.1189251
-10.62241 -12.65661 0.1261234
-10.67827 -12.65632 0.1333866
-10.73445 -12.65604 0.1407146
-10.79093 -12.65575 0.1481075
-10.84774 -12.65546 0.1555672
-10.90487 -12.65516 0.1630917
-10.96232 -12.65487 0.1706867
-11.0201 -12.65457 0.1783504
-11.07822 -12.65427 0.1860809
-11.13667 -12.65397 0.1938839
-11.19546 -12.65367 0.2017555
-11.2546 -12.65337 0.2096996
-11.31408 -12.65306 0.2177162
-11.37392 -12.65276 0.2258053
-11.43412 -12.65245 0.2339687
-11.49468 -12.65214 0.2422066
0.6823475 -4.822346 -1.920185
0.669042 -4.822332 -1.921951
0.655817 -4.822317 -1.923702
0.6426722 -4.822302 -1.925438
0.6296063 -4.822287 -1.927156
0.6166176 -4.822273 -1.92886
0.603706 -4.822258 -1.930548
0.5908704 -4.822245 -1.93222
0.5781099 -4.822229 -1.933878
0.5654236 -4.822216 -1.935522
0.5528108 -4.822201 -1.937149
0.5402701 -4.822187 -1.938763
0.527801 -4.822174 -1.940363
0.515403 -4.822159 -1.941948
0.5030746 -4.822145 -1.943518
0.4908154 -4.822132 -1.945074
0.4786247 -4.822119 -1.946617
0.4665008 -4.822104 -1.948147
0.4544438 -4.82209 -1.949663
0.4424533 -4.822077 -1.951164
0.4305277 -4.822063 -1.952654
0.4186665 -4.82205 -1.95413
0.4068688 -4.822037 -1.955593
0.3951343 -4.822023 -1.957043
0.3834621 -4.82201 -1.958479
0.3718511 -4.821999 -1.959904
0.3603013 -4.821985 -1.961317
0.3488116 -4.821972 -1.962717
0.3373809 -4.821959 -1.964104
0.3260092 -4.821947 -1.965479
0.3146957 -4.821934 -1.966843
0.3034396 -4.82192 -1.968195
0.2922403 -4.821909 -1.969534
0.2810973 -4.821896 -1.970861
0.2700097 -4.821884 -1.972179
0.258977 -4.821871 -1.973484
0.2479991 -4.821859 -1.974777
0.2370744 -4.821846 -1.976061
0.2262031 -4.821835 -1.977331
0.2153839 -4.821823 -1.978592
0.2046172 -4.82181 -1.979841
0.1939017 -4.821798 -1.981081
0.1832369 -4.821787 -1.982309
0.1726227 -4.821774 -1.983526
0.1620579 -4.821762 -1.984734
0.1515424 -4.821751 -1.985929
0.1410756 -4.821739 -1.987116
0.1306564 -4.821728 -1.988291
0.120285 -4.821716 -1.989458
0.109961 -4.821705 -1.990614
0.09968331 -4.821693 -1.991758
0.08945151 -4.82168 -1.992895
0.07926551 -4.821669 -1.99402
0.06912444 -4.821659 -1.995138
0.05902784 -4.821648 -1.996244
0.04897536 -4.821636 -1.997343
0.03896675 -4.821625 -1.99843
0.02900106 -4.821613 -1.999508
0.01907829 -4.821602 -2.000578
0.009197484 -4.82159 -2.001638
-0.0006417127 -4.821579 -2.002689
-0.01043918 -4.821569 -2.003731
-0.02019612 -4.821558 -2.004765
-0.02991239 -4.821547 -2.005789
-0.03958862 -4.821537 -2.006804
-0.04922549 -4.821526 -2.007811
-0.05882303 -4.821514 -2.008808
-0.06838194 -4.821505 -2.009796
-0.07790221 -4.821493 -2.010778
-0.08738494 -4.821482 -2.011749
-0.09682998 -4.821472 -2.012714
-0.1062378 -4.821461 -2.01367
-0.1156088 -4.821451 -2.014616
-0.124944 -4.82144 -2.015556
-0.1342428 -4.82143 -2.016487
-0.1435061 -4.821419 -2.01741
-0.1527339 -4.821409 -2.018324
-0.1619275 -4.8214 -2.019232
-0.171086 -4.821388 -2.02013
-0.1802106 -4.821379 -2.021021
-0.1893016 -4.821367 -2.021906
-0.1983592 -4.821358 -2.022781
-0.2073836 -4.821348 -2.023649
-0.2163755 -4.821339 -2.024509
-0.2253352 -4.821327 -2.025362
-0.2342626 -4.821318 -2.026209
-0.2431584 -4.821308 -2.027046
-0.2520226 -4.821299 -2.027878
-0.2608562 -4.821287 -2.028702
-0.269659 -4.821278 -2.029516
-0.2784313 -4.821268 -2.030327
-0.2871736 -4.821259 -2.031128
-0.2958862 -4.821249 -2.031923
-0.3045692 -4.821239 -2.032711
-0.3132236 -4.82123 -2.033491
-0.3218487 -4.82122 -2.034266
-0.3304458 -4.821209 -2.035032
-0.3390144 -4.821199 -2.035793
-0.3475552 -4.82119 -2.036547
-0.3560683 -4.82118 -2.037292
-0.364554 -4.821171 -2.038033
-0.3730129 -4.821161 -2.038765
-0.3814451 -4.821152 -2.039492
-0.3898509 -4.821144 -2.040213
-0.3982303 -4.821135 -2.040926
-0.406584 -4.821125 -2.041634
-0.4149119 -4.821115 -2.042334
-0.4232145 -4.821106 -2.043028
-0.4314923 -4.821096 -2.043715
-0.4397451 -4.821087 -2.044397
-0.4479734 -4.821077 -2.045073
-0.4561772 -4.82107 -2.045742
-0.4643572 -4.82106 -2.046404
-0.4725133 -4.821051 -2.04706
-0.4806459 -4.821041 -2.047712
-0.4887555 -4.821032 -2.048355
-0.4968418 -4.821024 -2.048994
-0.5049055 -4.821014 -2.049627
-0.5129466 -4.821005 -2.050253
-0.5209655 -4.820995 -2.050875
-0.5289623 -4.820988 -2.051489
-0.5369374 -4.820978 -2.052097
-0.5448909 -4.820969 -2.0527
-0.5528231 -4.820961 -2.053297
-0.5607343 -4.820951 -2.053888
-0.5686245 -4.820942 -2.054476
-0.5764942 -4.820934 -2.055056
-0.5843434 -4.820925 -2.05563
-0.5921726 -4.820917 -2.056198
-0.5999817 -4.820908 -2.056761
-0.6077712 -4.820898 -2.05732
-0.6155413 -4.82089 -2.057871
-0.6232918 -4.820881 -2.058418
-0.6310233 -4.820873 -2.05896
-0.6387359 -4.820864 -2.059496
-0.6464301 -4.820856 -2.060026
-0.6541058 -4.820847 -2.060551
-0.6617633 -4.820839 -2.061069
-0.6694026 -4.820829 -2.061584
-0.6770241 -4.820822 -2.062094
-0.6846282 -4.820812 -2.062597
-0.6922145 -4.820805 -2.063097
-0.699784 -4.820795 -2.063589
-0.7073363 -4.820787 -2.064077
-0.7148719 -4.820778 -2.06456
-0.7223908 -4.82077 -2.065039
-0.7298934 -4.820763 -2.065512
-0.7373796 -4.820753 -2.065979
-0.7448499 -4.820745 -2.066442
-0.7523044 -4.820736 -2.0669
-0.7597431 -4.820728 -2.067352
-0.7671663 -4.820721 -2.067801
-0.7745745 -4.820711 -2.068243
-0.7819672 -4.820704 -2.068682
-0.7893453 -4.820696 -2.069113
-0.7967086 -4.820686 -2.069542
-0.8040573 -4.820679 -2.069965
-0.8113918 -4.820671 -2.070383
-0.8187118 -4.820663 -2.070797
-0.8260182 -4.820654 -2.071205
-0.8333105 -4.820646 -2.071609
-0.840589 -4.820639 -2.072008
-0.8478541 -4.820629 -2.072405
-0.8551059 -4.820621 -2.072794
-0.8623446 -4.820614 -2.073179
-0.8680156 -4.825983 -2.072508
-0.8680416 -4.851185 -2.067959
-0.8680682 -4.876928 -2.063307
-0.8680953 -4.903231 -2.058552
-0.8681231 -4.930115 -2.053686
-0.8681515 -4.957596 -2.048708
-0.8681805 -4.985699 -2.043615
-0.8682102 -5.014444 -2.038399
-0.8682405 -5.043854 -2.03306
-0.8682716 -5.073952 -2.02759
-0.8683034 -5.104763 -2.021986
-0.868336 -5.136316 -2.016243
-0.8683693 -5.168636 -2.010357
-0.8684035 -5.201752 -2.00432
-0.8684385 -5.235695 -1.998127
-0.8684745 -5.270496 -1.991774
-0.8685113 -5.306192 -1.985252
-0.868549 -5.342815 -1.978556
-0.8685879 -5.380405 -1.971678
-0.8686277 -5.419001 -1.964613
-0.8686686 -5.458641 -1.95735
-0.8687106 -5.499374 -1.949881
-0.8687538 -5.541243 -1.9422
-0.8687982 -5.584299 -1.934294
-0.8688439 -5.628592 -1.926157
-0.8688909 -5.674179 -1.917776
-0.8689393 -5.721119 -1.909143
-0.8689891 -5.76947 -1.900242
-0.8690405 -5.819304 -1.891064
-0.8690935 -5.870684 -1.881596
-0.8691481 -5.923689 -1.87182
-0.8692045 -5.978397 -1.861727
0.364894 -12.67763 -0.5819855
0.3331953 -12.67763 -0.5830631
0.301532 -12.67763 -0.5841236
0.2699037 -12.67763 -0.585165
0.2383089 -12.67763 -0.5861855
0.2067475 -12.67763 -0.5871887
0.1752193 -12.67763 -0.5881729
0.143723 -12.67763 -0.589138
0.1122579 -12.67763 -0.5900841
0.08082405 -12.67763 -0.591013
0.04942075 -12.67763 -0.5919209
0.01804641 -12.67763 -0.5928116
-0.01329858 -12.67763 -0.5936832
-0.04461531 -12.67763 -0.5945358
-0.0759046 -12.67763 -0.5953712
-0.1071666 -12.67763 -0.5961876
-0.1384018 -12.67763 -0.5969849
-0.1696115 -12.67763 -0.597765
-0.2007954 -12.67763 -0.598526
-0.2319554 -12.67763 -0.599268
-0.2630906 -12.67763 -0.5999928
-0.2942028 -12.67763 -0.6006985
-0.3252922 -12.67763 -0.6013851
-0.3563594 -12.67763 -0.6020565
-0.387405 -12.67762 -0.6027069
-0.4184293 -12.67762 -0.6033401
-0.4494334 -12.67762 -0.6039562
-0.4804176 -12.67762 -0.6045532
-0.5113829 -12.67762 -0.6051311
-0.5423291 -12.67762 -0.6056938
-0.5732575 -12.67762 -0.6062355
-0.6041685 -12.67762 -0.6067619
-0.6350625 -12.67762 -0.6072674
-0.6659404 -12.67762 -0.6077576
-0.6968024 -12.67762 -0.6082287
-0.7276496 -12.67762 -0.6086826
-0.7584822 -12.67762 -0.6091175
-0.789301 -12.67762 -0.6095352
-0.8201063 -12.67762 -0.6099358
-0.8508989 -12.67762 -0.6103172
-0.8816793 -12.67762 -0.6106815
-0.9124481 -12.67762 -0.6110287
-0.943206 -12.67762 -0.6113567
-0.9739534 -12.67762 -0.6116695
-1.004691 -12.67762 -0.6119633
-1.035419 -12.67762 -0.6122379
-1.066139 -12.67762 -0.6124954
-1.09685 -12.67762 -0.6127357
-1.127554 -12.67762 -0.6129589
-1.158251 -12.67762 -0.6131649
-1.188942 -12.67762 -0.6133518
-1.204966 -13.20245 -0.514883
-1.204781 -14.5077 -0.2697544
-1.211931 -15.84216 -0.01915169
-1.210057 -18.09187 0.4034176
-1.216886 -20.66237 0.8862362
-1.212311 -25.37488 1.77149
-1.266159 -26.99997 2.076635
-1.340567 -26.99997 2.076513
-1.414972 -26.99997 2.076452
-1.489376 -26.99997 2.076422
-1.56378 -26.99997 2.076422
-1.617912 -23.42615 1.405107
-1.587472 -12.663 -0.6169319
-1.618088 -12.66295 -0.6168823
-1.648706 -12.6629 -0.6168137
-1.679327 -12.66286 -0.6167278
-1.70995 -12.66281 -0.6166248
-1.740577 -12.66276 -0.6165047
-1.771209 -12.66271 -0.6163673
-1.801845 -12.66267 -0.6162109
-1.832487 -12.66262 -0.6160393
-1.863134 -12.66257 -0.6158466
-1.893788 -12.66253 -0.6156387
-1.92445 -12.66248 -0.6154137
-1.955118 -12.66243 -0.6151695
-1.985795 -12.66238 -0.6149082
-2.016481 -12.66234 -0.6146278
-2.047176 -12.66229 -0.6143322
-2.077881 -12.66224 -0.6140175
-2.108597 -12.6622 -0.6136856
-2.139323 -12.66215 -0.6133347
-2.170062 -12.6621 -0.6129684
-2.200813 -12.66206 -0.6125832
-2.231576 -12.66201 -0.6121788
-2.262353 -12.66196 -0.6117592
-2.293144 -12.66191 -0.6113186
-2.32395 -12.66187 -0.6108627
-2.35477 -12.66182 -0.6103897
-2.385607 -12.66177 -0.6098957
-2.41646 -12.66173 -0.6093864
-2.44733 -12.66168 -0.6088581
-2.478217 -12.66163 -0.6083126
-2.509123 -12.66158 -0.607748
-2.540047 -12.66154 -0.6071663
-2.570991 -12.66149 -0.6065655
-2.601954 -12.66144 -0.6059475
-2.632938 -12.66139 -0.6053104
-2.663943 -12.66135 -0.6046581
-2.69497 -12.6613 -0.6039848
-2.726019 -12.66125 -0.6032944
-2.757091 -12.66121 -0.6025848
-2.788187 -12.66116 -0.6018581
-2.819306 -12.66111 -0.6011124
-2.850451 -12.66106 -0.6003494
-2.881621 -12.66102 -0.5995674
-2.912817 -12.66097 -0.5987663
-2.944039 -12.66092 -0.5979481
-2.975288 -12.66087 -0.5971088
-3.006566 -12.66082 -0.5962543
-3.037872 -12.66078 -0.5953789
-3.069207 -12.66073 -0.5944862
-3.100571 -12.66068 -0.5935745
-3.131966 -12.66063 -0.5926437
-3.163393 -12.66059 -0.5916958
-3.194849 -12.66054 -0.5907269
-3.226339 -12.66049 -0.5897408
-3.257862 -12.66044 -0.5887356
-3.289418 -12.66039 -0.5877113
-3.321008 -12.66035 -0.586668
-3.352633 -12.6603 -0.5856056
-3.384293 -12.66025 -0.5845242
-3.41599 -12.6602 -0.5834236
-3.447723 -12.66015 -0.582304
-3.479494 -12.66011 -0.5811653
-3.511302 -12.66006 -0.5800056
-3.543149 -12.66001 -0.5788288
-3.575037 -12.65996 -0.577631
-3.606963 -12.65991 -0.576416
-3.638931 -12.65986 -0.5751801
-3.67094 -12.65982 -0.573925
-3.702991 -12.65977 -0.572649
-3.735084 -12.65972 -0.5713539
-3.767222 -12.65967 -0.5700397
-3.799404 -12.65962 -0.5687046
-3.83163 -12.65957 -0.5673504
-3.863902 -12.65952 -0.5659771
-3.89622 -12.65947 -0.5645828
-3.928585 -12.65943 -0.5631676
-3.960998 -12.65938 -0.5617332
-3.993458 -12.65933 -0.5602779
-4.656997 -15.16226 -0.07386017
-4.658513 -15.00878 -0.1017399
-4.659994 -14.85878 -0.1289635
-4.661443 -14.71215 -0.1555538
-4.662859 -14.56877 -0.1815319
-4.664246 -14.42854 -0.2069206
-4.665602 -14.29134 -0.231739
-4.666929 -14.15708 -0.2560024
-4.668229 -14.02566 -0.2797337
-4.669502 -13.897 -0.3029461
-4.670748 -13.77099 -0.3256588
-4.67197 -13.64756 -0.347887
-4.673167 -13.52663 -0.3696461
-4.67434 -13.40812 -0.3909492
-4.67549 -13.29196 -0.4118099
-4.676619 -13.17807 -0.4322433
-4.677725 -13.06639 -0.4522629
-4.67881 -12.95685 -0.4718781
-4.679875 -12.8494 -0.4911041
-4.680921 -12.74395 -0.5099487
-4.681947 -12.64048 -0.5284252
-4.715541 -12.64024 -0.5265446
-4.749412 -12.64066 -0.5245132
-4.783354 -12.64108 -0.5224571
-4.817367 -12.6415 -0.52038
-4.851452 -12.64192 -0.5182781
-4.88561 -12.64235 -0.5161552
-4.919841 -12.64277 -0.5140095
-4.954147 -12.6432 -0.5118389
-4.988528 -12.64363 -0.5096455
-5.022985 -12.64406 -0.5074291
-5.05752 -12.64448 -0.505188
-5.092133 -12.64491 -0.502924
-5.126824 -12.64534 -0.5006371
-5.161596 -12.64578 -0.4983234
-5.196449 -12.64621 -0.4959888
-5.231383 -12.64664 -0.4936275
-5.2664 -12.64708 -0.4912434
-5.301501 -12.64752 -0.4888344
-5.336686 -12.64795 -0.4864006
-5.371956 -12.64839 -0.483942
-5.407314 -12.64883 -0.4814606
-5.442759 -12.64927 -0.4789524
-5.478292 -12.64971 -0.4764194
-5.513916 -12.65016 -0.4738598
-5.549629 -12.6506 -0.4712753
-5.585434 -12.65105 -0.4686661
-5.621333 -12.65149 -0.4660301
-5.657324 -12.65194 -0.4633694
-5.693409 -12.65239 -0.4606819
-5.729591 -12.65284 -0.4579697
-5.76587 -12.65329 -0.4552288
-5.802246 -12.65374 -0.4524632
-5.838721 -12.6542 -0.4496708
-5.875296 -12.65465 -0.4468498
-5.911973 -12.65511 -0.4440041
-5.948752 -12.65557 -0.4411297
-5.985633 -12.65603 -0.4382286
-6.022619 -12.65649 -0.4352989
-6.059712 -12.65695 -0.4323444
-6.09691 -12.65741 -0.4293594
-6.134217 -12.65788 -0.4263477
-6.171632 -12.65834 -0.4233074
-6.209158 -12.65881 -0.4202385
-6.246795 -12.65928 -0.417141
-6.284545 -12.65975 -0.4140148
-6.322409 -12.66022 -0.4108601
-6.360388 -12.6607 -0.4076767
-6.398483 -12.66117 -0.4044628
-6.436696 -12.66165 -0.4012203
-6.475028 -12.66212 -0.3979473
-6.51348 -12.6626 -0.3946457
-6.552052 -12.66308 -0.3913116
-6.590748 -12.66357 -0.387949
-6.629569 -12.66405 -0.3845558
-6.668513 -12.66454 -0.3811321
-6.707584 -12.66502 -0.377676
-6.746786 -12.66551 -0.3741913
-6.786115 -12.666 -0.3706722
-6.825575 -12.66649 -0.3671246
-6.865166 -12.66699 -0.3635426
-6.904891 -12.66748 -0.35993
-6.944752 -12.66798 -0.3562851
-6.984749 -12.66848 -0.3526058
-7.024884 -12.66898 -0.348896
-7.065158 -12.66948 -0.3451519
-7.105574 -12.66999 -0.3413754
-7.298415 -12.94103 -0.2792416
-7.298379 -12.86776 -0.2912292
-7.298344 -12.79528 -0.3030682
-7.29831 -12.72357 -0.3147602
-7.298276 -12.65261 -0.3263092
-7.333744 -12.64328 -0.3244781
-7.374749 -12.64326 -0.3205891
-7.415902 -12.64324 -0.3166676
-7.457204 -12.64322 -0.3127098
-7.498656 -12.6432 -0.3087196
-7.540259 -12.64318 -0.3046932
-7.582019 -12.64316 -0.3006306
-7.62393 -12.64314 -0.2965317
-7.666002 -12.64312 -0.2923985
-7.70823 -12.6431 -0.288229
-7.75062 -12.64308 -0.2840214
-7.79317 -12.64306 -0.2797794
-7.835884 -12.64304 -0.2754993
-7.878765 -12.64302 -0.2711811
-7.921812 -12.643 -0.2668266
-7.965028 -12.64298 -0.2624321
-8.008415 -12.64295 -0.2580013
-8.051974 -12.64293 -0.2535305
-8.095709 -12.64291 -0.2490215
-8.139618 -12.64289 -0.2444725
-8.183706 -12.64287 -0.2398853
-8.227976 -12.64285 -0.2352581
-8.272427 -12.64283 -0.2305889
-8.317062 -12.64281 -0.2258816
-8.361882 -12.64279 -0.2211323
-8.40689 -12.64276 -0.216341
-8.452088 -12.64274 -0.2115097
-8.497481 -12.64272 -0.2066345
-8.543065 -12.6427 -0.2017193
-8.588847 -12.64268 -0.1967602
-8.634828 -12.64266 -0.1917572
-8.681007 -12.64263 -0.1867123
-8.727392 -12.64261 -0.1816216
-8.77398 -12.64259 -0.1764889
-8.820776 -12.64257 -0.1713104
-8.867781 -12.64254 -0.1660881
-8.914997 -12.64252 -0.16082
-8.962429 -12.6425 -0.1555061
-9.010074 -12.64248 -0.1501446
-9.05794 -12.64246 -0.1447392
-9.106029 -12.64243 -0.1392841
-9.15434 -12.64241 -0.1337833
-9.202876 -12.64239 -0.128233
-9.251643 -12.64236 -0.1226368
-9.300641 -12.64234 -0.1169891
-9.349871 -12.64232 -0.1112938
-9.399339 -12.64229 -0.1055489
-9.449045 -12.64227 -0.09975433
-9.498994 -12.64225 -0.09390831
-9.549186 -12.64222 -0.08801079
-9.599625 -12.6422 -0.08206177
-9.650314 -12.64218 -0.07606125
-9.701256 -12.64215 -0.07000732
-10.07 -13.027 0.02983856
-10.06968 -12.96223 0.0204258
-10.06937 -12.89793 0.01110458
-10.06905 -12.83411 0.001876831
-10.06874 -12.77076 -0.007259369
-10.06843 -12.70786 -0.01630783
-10.08025 -12.65958 -0.02176285
-10.1332 -12.65932 -0.01531982
-10.18643 -12.65904 -0.00881958
-10.23994 -12.65877 -0.002262115
-10.29373 -12.6585 0.004354477
-10.3478 -12.65822 0.01102829
-10.40217 -12.65794 0.01776314
-10.45683 -12.65766 0.02455711
-10.51179 -12.65738 0.03141022
-10.56704 -12.6571 0.03832626
-10.6226 -12.65682 0.04530144
-10.67846 -12.65653 0.05234146
-10.73464 -12.65624 0.05944443
-10.79113 -12.65596 0.06661034
-10.84793 -12.65566 0.07383919
-10.90506 -12.65537 0.0811348
-10.96252 -12.65508 0.08849525
-11.0203 -12.65478 0.09592247
-11.07842 -12.65448 0.1034164
-11.13687 -12.65419 0.1109772
-11.19566 -12.65388 0.1186085
-11.2548 -12.65358 0.1263084
-11.31429 -12.65328 0.1340771
-11.37413 -12.65297 0.1419182
-11.43433 -12.65266 0.1498299
-11.49489 -12.65235 0.157814
0.6823469 -4.822346 -1.938568
0.6690414 -4.82233 -1.940279
0.6558165 -4.822317 -1.941975
0.6426714 -4.822302 -1.943655
0.6296058 -4.822287 -1.945318
0.6166174 -4.822271 -1.946968
0.6037053 -4.822258 -1.948603
0.5908697 -4.822243 -1.950222
0.578109 -4.822229 -1.951828
0.5654227 -4.822214 -1.953419
0.5528102 -4.822201 -1.954996
0.5402696 -4.822186 -1.956558
0.5278005 -4.822172 -1.958107
0.5154023 -4.822159 -1.959641
0.503074 -4.822145 -1.961163
0.4908147 -4.82213 -1.962669
0.4786239 -4.822117 -1.964163
0.4665004 -4.822104 -1.965645
0.4544434 -4.82209 -1.967112
0.4424526 -4.822077 -1.968567
0.4305272 -4.822063 -1.970009
0.4186658 -4.82205 -1.971437
0.4068684 -4.822037 -1.972853
0.3951339 -4.822023 -1.974258
0.3834615 -4.82201 -1.975649
0.3718507 -4.821997 -1.97703
0.3603007 -4.821985 -1.978395
0.3488108 -4.821972 -1.979752
0.3373804 -4.821959 -1.981094
0.3260085 -4.821945 -1.982428
0.3146954 -4.821934 -1.983747
0.3034392 -4.82192 -1.985056
0.2922397 -4.821907 -1.986353
0.2810966 -4.821896 -1.987638
0.2700093 -4.821882 -1.988914
0.2589767 -4.821871 -1.990177
0.2479984 -4.821857 -1.99143
0.2370741 -4.821846 -1.992672
0.2262025 -4.821835 -1.993904
0.2153834 -4.821821 -1.995125
0.2046169 -4.82181 -1.996334
0.1939011 -4.821798 -1.997534
0.1832363 -4.821785 -1.998722
0.1726222 -4.821774 -1.999901
0.1620575 -4.821762 -2.00107
0.1515419 -4.821751 -2.002228
0.141075 -4.821739 -2.003378
0.1306559 -4.821726 -2.004517
0.1202848 -4.821714 -2.005644
0.1099606 -4.821703 -2.006763
0.0996827 -4.821692 -2.007874
0.08945104 -4.82168 -2.008974
0.07926529 -4.821669 -2.010063
0.069124 -4.821657 -2.011145
0.05902754 -4.821646 -2.012217
0.04897519 -4.821634 -2.013279
0.03896636 -4.821623 -2.014334
0.0290008 -4.821613 -2.015377
0.01907793 -4.821602 -2.016413
0.009197259 -4.82159 -2.017439
-0.000641922 -4.821579 -2.018457
-0.01043949 -4.821568 -2.019466
-0.02019641 -4.821558 -2.020466
-0.02991292 -4.821547 -2.021458
-0.039589 -4.821535 -2.02244
-0.04922574 -4.821526 -2.023415
-0.05882314 -4.821514 -2.024382
-0.06838204 -4.821503 -2.025339
-0.07790253 -4.821493 -2.026289
-0.08738525 -4.821482 -2.027231
-0.09683016 -4.821472 -2.028164
-0.1062382 -4.821461 -2.029089
-0.1156091 -4.821451 -2.030006
-0.1249442 -4.82144 -2.030916
-0.1342431 -4.82143 -2.031816
-0.1435063 -4.821419 -2.032711
-0.1527345 -4.821409 -2.033596
-0.1619278 -4.821398 -2.034475
-0.1710865 -4.821388 -2.035345
-0.1802109 -4.821379 -2.036207
-0.189302 -4.821367 -2.037064
-0.1983596 -4.821358 -2.037912
-0.207384 -4.821348 -2.038752
-0.2163759 -4.821337 -2.039585
-0.2253354 -4.821327 -2.040411
-0.2342629 -4.821318 -2.041231
-0.2431586 -4.821308 -2.042042
-0.252023 -4.821297 -2.042847
-0.2608565 -4.821287 -2.043644
-0.2696593 -4.821278 -2.044434
-0.2784315 -4.821268 -2.045218
-0.2871739 -4.821259 -2.045994
-0.2958864 -4.821249 -2.046764
-0.3045696 -4.821238 -2.047527
-0.3132238 -4.821228 -2.048283
-0.3218491 -4.821218 -2.049032
-0.3304459 -4.821209 -2.049774
-0.3390145 -4.821199 -2.05051
-0.3475553 -4.82119 -2.051241
-0.3560685 -4.82118 -2.051964
-0.3645543 -4.821171 -2.052679
-0.3730131 -4.821161 -2.053389
-0.3814453 -4.821152 -2.054092
-0.3898512 -4.821142 -2.05479
-0.3982306 -4.821133 -2.055481
-0.4065841 -4.821123 -2.056166
-0.4149122 -4.821115 -2.056845
-0.4232148 -4.821106 -2.057516
-0.4314924 -4.821096 -2.058182
-0.4397451 -4.821087 -2.058842
-0.4479735 -4.821077 -2.059496
-0.4561773 -4.821068 -2.060144
-0.4643573 -4.821058 -2.060785
-0.4725135 -4.821051 -2.061422
-0.4806462 -4.821041 -2.062052
-0.4887557 -4.821032 -2.062675
-0.4968421 -4.821022 -2.063293
-0.5049056 -4.821014 -2.063906
-0.5129467 -4.821005 -2.064512
-0.5209657 -4.820995 -2.065113
-0.5289627 -4.820988 -2.06571
-0.5369376 -4.820978 -2.066298
-0.5448912 -4.820969 -2.066883
-0.5528234 -4.820959 -2.067461
-0.5607345 -4.820951 -2.068033
-0.5686247 -4.820942 -2.068602
-0.5764943 -4.820934 -2.069162
-0.5843437 -4.820925 -2.069719
-0.5921727 -4.820915 -2.070269
-0.599982 -4.820908 -2.070814
-0.6077714 -4.820898 -2.071356
-0.6155414 -4.82089 -2.07189
-0.623292 -4.820881 -2.072418
-0.6310236 -4.820873 -2.072943
-0.6387363 -4.820864 -2.073462
-0.6464302 -4.820854 -2.073977
-0.654106 -4.820847 -2.074484
-0.6617634 -4.820837 -2.074987
-0.6694027 -4.820829 -2.075485
-0.6770243 -4.82082 -2.075977
-0.6846284 -4.820812 -2.076466
-0.6922147 -4.820805 -2.076948
-0.6997842 -4.820795 -2.077427
-0.7073364 -4.820787 -2.077898
-0.714872 -4.820778 -2.078367
-0.7223909 -4.82077 -2.078829
-0.7298936 -4.820761 -2.079287
-0.7373797 -4.820753 -2.079741
-0.7448502 -4.820745 -2.080189
-0.7523044 -4.820736 -2.080631
-0.7597432 -4.820728 -2.08107
-0.7671665 -4.820721 -2.081503
-0.7745746 -4.820711 -2.081932
-0.7819675 -4.820704 -2.082357
-0.7893457 -4.820694 -2.082775
-0.7967088 -4.820686 -2.083189
-0.8040574 -4.820679 -2.083599
-0.8113918 -4.820671 -2.084005
-0.8187119 -4.820662 -2.084406
-0.8260183 -4.820654 -2.084801
-0.8333105 -4.820646 -2.085192
-0.8405891 -4.820637 -2.085579
-0.8478544 -4.820629 -2.085962
-0.8551061 -4.820621 -2.086338
-0.8623449 -4.820614 -2.086712
-0.868022 -4.825962 -2.086065
-0.8680481 -4.851162 -2.081661
-0.8680748 -4.876904 -2.077158
-0.868102 -4.903208 -2.072554
-0.8681298 -4.93009 -2.067842
-0.8681583 -4.957573 -2.063023
-0.8681874 -4.985674 -2.058088
-0.8682171 -5.014418 -2.05304
-0.8682476 -5.043827 -2.047869
-0.8682787 -5.073925 -2.042574
-0.8683106 -5.104736 -2.037148
-0.8683432 -5.136288 -2.031588
-0.8683767 -5.168606 -2.025887
-0.8684109 -5.201721 -2.020041
-0.8684461 -5.235664 -2.014046
-0.8684821 -5.270466 -2.007895
-0.868519 -5.30616 -2.001579
-0.8685569 -5.342783 -1.995096
-0.8685958 -5.380371 -1.988436
-0.8686357 -5.418964 -1.981594
-0.8686767 -5.458605 -1.974562
-0.8687188 -5.499336 -1.967331
-0.8687621 -5.541204 -1.959892
-0.8688067 -5.584259 -1.952238
-0.8688524 -5.628551 -1.944359
-0.8688996 -5.674137 -1.936245
-0.8689481 -5.721075 -1.927885
-0.8689981 -5.769426 -1.919266
-0.8690496 -5.819256 -1.910379
-0.8691027 -5.870636 -1.901211
-0.8691576 -5.923639 -1.891747
-0.8692141 -5.978346 -1.881973
0.3648914 -12.67762 -0.6427994
0.3331928 -12.67762 -0.6438446
0.3015299 -12.67762 -0.6448708
0.2699012 -12.67762 -0.6458778
0.2383066 -12.67762 -0.6468678
0.2067454 -12.67762 -0.6478386
0.1752171 -12.67762 -0.6487923
0.1437209 -12.67762 -0.6497269
0.112256 -12.67762 -0.6506424
0.08082225 -12.67762 -0.6515408
0.04941861 -12.67762 -0.65242
0.01804453 -12.67762 -0.6532822
-0.01330044 -12.67762 -0.6541271
-0.04461726 -12.67762 -0.654953
-0.07590642 -12.67762 -0.6557617
-0.1071681 -12.67762 -0.6565514
-0.1384037 -12.67761 -0.6573238
-0.1696129 -12.67761 -0.6580791
-0.2007969 -12.67761 -0.6588154
-0.2319569 -12.67761 -0.6595345
-0.2630923 -12.67761 -0.6602364
-0.2942045 -12.67761 -0.6609192
-0.3252937 -12.67761 -0.6615849
-0.3563608 -12.67761 -0.6622334
-0.3874065 -12.67761 -0.6628647
-0.4184307 -12.67761 -0.6634769
-0.4494347 -12.67761 -0.6640739
-0.4804191 -12.67761 -0.6646519
-0.511384 -12.67761 -0.6652126
-0.5423304 -12.67761 -0.6657562
-0.5732586 -12.67761 -0.6662807
-0.6041695 -12.67761 -0.66679
-0.6350636 -12.67761 -0.6672802
-0.6659414 -12.67761 -0.6677551
-0.6968036 -12.67761 -0.668211
-0.7276505 -12.67761 -0.6686497
-0.7584832 -12.67761 -0.6690712
-0.7893019 -12.67761 -0.6694775
-0.820107 -12.67761 -0.6698627
-0.8508997 -12.67761 -0.6702347
-0.8816801 -12.67761 -0.6705875
-0.9124489 -12.67761 -0.6709232
-0.9432067 -12.67761 -0.6712399
-0.9739541 -12.67761 -0.6715412
-1.004692 -12.67761 -0.6718273
-1.03542 -12.67761 -0.6720924
-1.066139 -12.67761 -0.6723423
-1.096851 -12.67761 -0.672575
-1.127555 -12.67761 -0.6727924
-1.158252 -12.67761 -0.6729908
-1.188942 -12.67761 -0.673172
-1.205016 -13.20069 -0.5781441
-1.204836 -14.50547 -0.3408699
-1.211961 -15.84077 -0.09806061
-1.210093 -18.08998 0.3110161
-1.216912 -20.66069 0.7785683
-1.212335 -25.37298 1.635714
-1.266159 -26.99997 1.931524
-1.340569 -26.99997 1.931433
-1.414972 -26.99997 1.931341
-1.489376 -26.99997 1.931341
-1.56378 -26.99997 1.931341
-1.618001 -23.44197 1.28417
-1.587471 -12.66296 -0.6766415
-1.618088 -12.66291 -0.6765938
-1.648705 -12.66287 -0.6765289
-1.679326 -12.66282 -0.676445
-1.709949 -12.66277 -0.6763458
-1.740577 -12.66273 -0.6762295
-1.771208 -12.66268 -0.676096
-1.801844 -12.66263 -0.6759453
-1.832486 -12.66259 -0.6757774
-1.863133 -12.66254 -0.6755924
-1.893787 -12.66249 -0.6753902
-1.924448 -12.66244 -0.6751709
-1.955117 -12.6624 -0.6749363
-1.985794 -12.66235 -0.6746826
-2.016479 -12.6623 -0.6744118
-2.047174 -12.66226 -0.6741257
-2.077879 -12.66221 -0.6738205
-2.108595 -12.66216 -0.6734982
-2.139321 -12.66212 -0.6731606
-2.17006 -12.66207 -0.6728039
-2.20081 -12.66202 -0.67243
-2.231574 -12.66197 -0.6720409
-2.26235 -12.66193 -0.6716328
-2.293141 -12.66188 -0.6712074
-2.323947 -12.66183 -0.6707668
-2.354767 -12.66179 -0.6703072
-2.385604 -12.66174 -0.6698303
-2.416457 -12.66169 -0.6693363
-2.447326 -12.66164 -0.6688251
-2.478214 -12.6616 -0.6682949
-2.509119 -12.66155 -0.6677494
-2.540043 -12.6615 -0.6671867
-2.570987 -12.66145 -0.666605
-2.60195 -12.66141 -0.6660061
-2.632934 -12.66136 -0.66539
-2.663939 -12.66131 -0.6647568
-2.694966 -12.66127 -0.6641064
-2.726015 -12.66122 -0.6634369
-2.757087 -12.66117 -0.6627502
-2.788182 -12.66112 -0.6620464
-2.819302 -12.66108 -0.6613255
-2.850446 -12.66103 -0.6605854
-2.881616 -12.66098 -0.6598282
-2.912812 -12.66093 -0.6590519
-2.944034 -12.66089 -0.6582603
-2.975283 -12.66084 -0.6574497
-3.006561 -12.66079 -0.65662
-3.037866 -12.66074 -0.6557732
-3.069201 -12.6607 -0.6549091
-3.100565 -12.66065 -0.654026
-3.13196 -12.6606 -0.6531258
-3.163386 -12.66055 -0.6522064
-3.194844 -12.6605 -0.6512699
-3.226333 -12.66046 -0.6503143
-3.257856 -12.66041 -0.6493397
-3.289412 -12.66036 -0.6483479
-3.321002 -12.66031 -0.647337
-3.352626 -12.66026 -0.6463089
-3.384287 -12.66022 -0.6452618
-3.415983 -12.66017 -0.6441956
-3.447716 -12.66012 -0.6431122
-3.479487 -12.66007 -0.6420097
-3.511295 -12.66002 -0.6408882
-3.543142 -12.65997 -0.6397476
-3.575029 -12.65993 -0.638588
-3.606956 -12.65988 -0.6374111
-3.638923 -12.65983 -0.6362133
-3.670933 -12.65978 -0.6349983
-3.702983 -12.65973 -0.6337643
-3.735077 -12.65968 -0.6325092
-3.767214 -12.65963 -0.631237
-3.799396 -12.65959 -0.6299458
-3.831622 -12.65954 -0.6286335
-3.863893 -12.65949 -0.6273022
-3.896211 -12.65944 -0.6259537
-3.928576 -12.65939 -0.6245823
-3.960989 -12.65934 -0.6231937
-3.993449 -12.65929 -0.6217861
-4.656021 -15.15839 -0.1515102
-4.657547 -15.005 -0.1784878
-4.659039 -14.85509 -0.2048321
-4.660498 -14.70854 -0.2305641
-4.661925 -14.56525 -0.2557049
-4.663321 -14.42509 -0.2802734
-4.664687 -14.28797 -0.3042908
-4.666024 -14.15379 -0.3277721
-4.667333 -14.02244 -0.3507366
-4.668614 -13.89384 -0.3732014
-4.66987 -13.7679 -0.3951817
-4.6711 -13.64454 -0.4166946
-4.672306 -13.52368 -0.4377499
-4.673487 -13.40523 -0.4583664
-4.674645 -13.28913 -0.4785557
-4.675781 -13.1753 -0.4983311
-4.676896 -13.06367 -0.5177059
-4.677989 -12.95419 -0.5366898
-4.679061 -12.84678 -0.5552959
-4.680114 -12.74139 -0.573534
-4.681699 -12.6397 -0.5910835
-4.715501 -12.64011 -0.589138
-4.749372 -12.64053 -0.5871696
-4.783314 -12.64096 -0.5851803
-4.817327 -12.64138 -0.583168
-4.851411 -12.6418 -0.5811348
-4.885568 -12.64223 -0.5790787
-4.919799 -12.64265 -0.5769997
-4.954104 -12.64308 -0.5748978
-4.988485 -12.6435 -0.5727749
-5.022943 -12.64393 -0.5706291
-5.057476 -12.64436 -0.5684586
-5.092088 -12.64479 -0.566267
-5.12678 -12.64522 -0.5640526
-5.161551 -12.64565 -0.5618134
-5.196403 -12.64608 -0.5595512
-5.231337 -12.64652 -0.5572662
-5.266353 -12.64695 -0.5549564
-5.301454 -12.64739 -0.5526257
-5.336638 -12.64783 -0.5502682
-5.371908 -12.64827 -0.5478878
-5.407265 -12.64871 -0.5454845
-5.442709 -12.64915 -0.5430546
-5.478242 -12.64959 -0.5406017
-5.513865 -12.65003 -0.5381241
-5.549578 -12.65047 -0.5356236
-5.585382 -12.65092 -0.5330963
-5.62128 -12.65137 -0.5305443
-5.65727 -12.65181 -0.5279675
-5.693357 -12.65226 -0.5253658
-5.729537 -12.65271 -0.5227375
-5.765816 -12.65316 -0.5200863
-5.802191 -12.65362 -0.5174065
-5.838665 -12.65407 -0.5147038
-5.87524 -12.65452 -0.5119724
-5.911917 -12.65498 -0.5092163
-5.948694 -12.65544 -0.5064335
-5.985576 -12.6559 -0.503624
-6.022561 -12.65636 -0.5007877
-6.059653 -12.65682 -0.4979267
-6.096852 -12.65728 -0.4950371
-6.134156 -12.65775 -0.4921207
-6.171572 -12.65821 -0.4891758
-6.209096 -12.65868 -0.4862041
-6.246734 -12.65915 -0.4832058
-6.284482 -12.65962 -0.4801788
-6.322347 -12.66009 -0.4771252
-6.360324 -12.66056 -0.474041
-6.398419 -12.66104 -0.4709301
-6.436631 -12.66151 -0.4677906
-6.474962 -12.66199 -0.4646206
-6.513413 -12.66247 -0.4614239
-6.551986 -12.66295 -0.4581966
-6.590682 -12.66343 -0.4549408
-6.6295 -12.66392 -0.4516544
-6.668445 -12.6644 -0.4483395
-6.707516 -12.66489 -0.444994
-6.746716 -12.66538 -0.441618
-6.786044 -12.66587 -0.4382133
-6.825503 -12.66636 -0.4347763
-6.865093 -12.66685 -0.4313087
-6.904819 -12.66735 -0.4278107
-6.944679 -12.66785 -0.4242802
-6.984675 -12.66835 -0.4207191
-7.024811 -12.66885 -0.4171257
-7.065084 -12.66935 -0.4135017
-7.105497 -12.66985 -0.4098454
-7.298443 -12.94108 -0.3496418
-7.298408 -12.86781 -0.3612499
-7.298373 -12.79533 -0.3727131
-7.298338 -12.72361 -0.3840351
-7.298305 -12.65266 -0.3952179
-7.333716 -12.64323 -0.393465
-7.374722 -12.64321 -0.3896999
-7.415874 -12.64319 -0.3859024
-7.457176 -12.64317 -0.3820705
-7.498628 -12.64315 -0.3782063
-7.540231 -12.64313 -0.3743057
-7.58199 -12.64311 -0.3703728
-7.623902 -12.64309 -0.3664055
-7.665972 -12.64307 -0.362402
-7.7082 -12.64305 -0.3583641
-7.75059 -12.64303 -0.3542919
-7.79314 -12.64301 -0.3501835
-7.835854 -12.64299 -0.3460388
-7.878734 -12.64297 -0.3418579
-7.92178 -12.64295 -0.3376408
-7.964996 -12.64293 -0.3333874
-8.008385 -12.64291 -0.3290958
-8.051943 -12.64289 -0.3247662
-8.095676 -12.64287 -0.3204002
-8.139586 -12.64284 -0.3159962
-8.183675 -12.64282 -0.311554
-8.227942 -12.6428 -0.3070736
-8.272394 -12.64278 -0.3025532
-8.317029 -12.64276 -0.2979946
-8.361849 -12.64274 -0.293396
-8.406857 -12.64272 -0.2887573
-8.452056 -12.64269 -0.2840786
-8.497446 -12.64267 -0.2793579
-8.543032 -12.64265 -0.2745972
-8.588813 -12.64263 -0.2697964
-8.634792 -12.64261 -0.2649517
-8.680972 -12.64258 -0.260067
-8.727355 -12.64256 -0.2551384
-8.773944 -12.64254 -0.2501678
-8.82074 -12.64252 -0.2451553
-8.867743 -12.6425 -0.240097
-8.91496 -12.64247 -0.2349968
-8.962392 -12.64245 -0.2298508
-9.010037 -12.64243 -0.2246609
-9.057902 -12.6424 -0.2194252
-9.105989 -12.64238 -0.2141438
-9.154301 -12.64236 -0.2088165
-9.202838 -12.64234 -0.2034435
-9.251604 -12.64231 -0.1980228
-9.300602 -12.64229 -0.1925564
-9.349832 -12.64227 -0.1870422
-9.399299 -12.64224 -0.1814785
-9.449004 -12.64222 -0.1758671
-9.498953 -12.6422 -0.1702061
-9.549144 -12.64217 -0.1644974
-9.599584 -12.64215 -0.1587372
-9.650271 -12.64212 -0.1529255
-9.701213 -12.6421 -0.1470642
-10.06992 -13.0269 -0.05039597
-10.0696 -12.96213 -0.05951118
-10.06928 -12.89783 -0.06853485
-10.06897 -12.83401 -0.07747078
-10.06865 -12.77066 -0.08631706
-10.06834 -12.70776 -0.09507751
-10.08042 -12.65979 -0.1002903
-10.13337 -12.65952 -0.09404945
-10.1866 -12.65925 -0.0877552
-10.24011 -12.65897 -0.08140564
-10.2939 -12.6587 -0.07499886
-10.34798 -12.65842 -0.06853485
-10.40235 -12.65815 -0.06201553
-10.45701 -12.65787 -0.05543709
-10.51197 -12.65759 -0.04879951
-10.56723 -12.65731 -0.04210281
-10.62279 -12.65702 -0.03534889
-10.67865 -12.65674 -0.02853203
-10.73483 -12.65645 -0.02165413
-10.79132 -12.65616 -0.01471519
-10.84813 -12.65587 -0.007713318
-10.90526 -12.65558 -0.0006504059
-10.96272 -12.65529 0.006477356
-11.0205 -12.65499 0.01366997
-11.07862 -12.6547 0.02092552
-11.13707 -12.6544 0.02824783
-11.19587 -12.6541 0.0356369
-11.25501 -12.65379 0.04309273
-11.3145 -12.65349 0.05061722
-11.37434 -12.65318 0.05820847
-11.43455 -12.65288 0.06587029
-11.49511 -12.65257 0.07360268
0.6823463 -4.822346 -1.956915
0.6690406 -4.82233 -1.958569
0.6558157 -4.822315 -1.960209
0.6426712 -4.8223 -1.961834
0.6296048 -4.822287 -1.963444
0.6166164 -4.822271 -1.96504
0.6037046 -4.822258 -1.966621
0.5908691 -4.822243 -1.968187
0.5781086 -4.822227 -1.96974
0.5654224 -4.822214 -1.971279
0.5528096 -4.822201 -1.972803
0.5402693 -4.822186 -1.974316
0.5278 -4.822172 -1.975813
0.515402 -4.822159 -1.977297
0.5030733 -4.822144 -1.978769
0.4908143 -4.82213 -1.980227
0.4786235 -4.822117 -1.981672
0.4664999 -4.822104 -1.983105
0.454443 -4.82209 -1.984524
0.4424523 -4.822077 -1.985931
0.4305265 -4.822063 -1.987326
0.4186653 -4.82205 -1.988708
0.406868 -4.822037 -1.990078
0.3951332 -4.822023 -1.991436
0.3834611 -4.82201 -1.992783
0.3718503 -4.821997 -1.994118
0.3603003 -4.821983 -1.99544
0.3488104 -4.821972 -1.996752
0.3373796 -4.821959 -1.998051
0.3260084 -4.821945 -1.999338
0.3146947 -4.821932 -2.000616
0.3034387 -4.82192 -2.001883
0.2922393 -4.821907 -2.003138
0.2810964 -4.821896 -2.004381
0.2700089 -4.821882 -2.005613
0.2589762 -4.821871 -2.006836
0.2479981 -4.821857 -2.008049
0.2370736 -4.821846 -2.009249
0.2262021 -4.821833 -2.010441
0.2153828 -4.821821 -2.011621
0.2046162 -4.82181 -2.012793
0.1939007 -4.821796 -2.013952
0.183236 -4.821785 -2.015102
0.1726218 -4.821774 -2.016243
0.1620571 -4.821762 -2.017372
0.1515412 -4.821749 -2.018494
0.1410744 -4.821737 -2.019606
0.1306556 -4.821726 -2.020706
0.1202844 -4.821714 -2.021799
0.1099601 -4.821703 -2.022881
0.09968234 -4.821692 -2.023954
0.08945058 -4.82168 -2.025019
0.07926484 -4.821669 -2.026073
0.06912357 -4.821657 -2.027119
0.05902713 -4.821646 -2.028154
0.04897479 -4.821634 -2.029182
0.03896598 -4.821623 -2.030203
0.02900044 -4.821611 -2.031214
0.01907722 -4.821602 -2.032215
0.009196811 -4.82159 -2.033207
-0.0006421155 -4.821579 -2.034191
-0.01044015 -4.821568 -2.035168
-0.02019693 -4.821556 -2.036135
-0.02991306 -4.821547 -2.037094
-0.03958949 -4.821535 -2.038046
-0.0492261 -4.821524 -2.038988
-0.0588236 -4.821514 -2.039923
-0.06838248 -4.821503 -2.04085
-0.07790297 -4.821491 -2.041767
-0.08738554 -4.821482 -2.042679
-0.09683056 -4.82147 -2.043581
-0.1062385 -4.821461 -2.044477
-0.1156095 -4.821449 -2.045364
-0.1249446 -4.82144 -2.046244
-0.1342433 -4.821428 -2.047115
-0.1435069 -4.821419 -2.047979
-0.1527347 -4.821407 -2.048838
-0.1619281 -4.821398 -2.049686
-0.1710868 -4.821388 -2.050528
-0.1802114 -4.821377 -2.051363
-0.1893024 -4.821367 -2.052191
-0.1983598 -4.821358 -2.053011
-0.2073843 -4.821346 -2.053823
-0.2163761 -4.821337 -2.05463
-0.2253358 -4.821327 -2.055429
-0.2342634 -4.821316 -2.056221
-0.2431589 -4.821306 -2.057007
-0.2520233 -4.821297 -2.057785
-0.2608567 -4.821287 -2.058556
-0.2696594 -4.821278 -2.05932
-0.2784319 -4.821268 -2.060078
-0.2871741 -4.821257 -2.060829
-0.2958867 -4.821247 -2.061573
-0.3045699 -4.821238 -2.062311
-0.3132241 -4.821228 -2.063044
-0.3218494 -4.821218 -2.063768
-0.3304462 -4.821209 -2.064486
-0.3390149 -4.821199 -2.065199
-0.3475556 -4.82119 -2.065905
-0.3560687 -4.82118 -2.066603
-0.3645546 -4.821171 -2.067297
-0.3730135 -4.821161 -2.067984
-0.3814455 -4.821152 -2.068663
-0.3898513 -4.821142 -2.069338
-0.3982308 -4.821133 -2.070005
-0.4065844 -4.821123 -2.070669
-0.4149124 -4.821114 -2.071325
-0.4232151 -4.821104 -2.071976
-0.4314927 -4.821096 -2.072618
-0.4397455 -4.821087 -2.073257
-0.4479738 -4.821077 -2.073891
-0.4561776 -4.821068 -2.074516
-0.4643576 -4.821058 -2.075138
-0.4725138 -4.821049 -2.075752
-0.4806464 -4.821041 -2.076363
-0.4887559 -4.821032 -2.076965
-0.4968424 -4.821022 -2.077564
-0.5049059 -4.821012 -2.078156
-0.512947 -4.821005 -2.078743
-0.520966 -4.820995 -2.079325
-0.5289629 -4.820986 -2.079901
-0.5369379 -4.820978 -2.080469
-0.5448914 -4.820969 -2.081036
-0.5528235 -4.820959 -2.081594
-0.5607348 -4.820951 -2.082148
-0.5686249 -4.820942 -2.082697
-0.5764946 -4.820932 -2.083241
-0.5843439 -4.820925 -2.083778
-0.592173 -4.820915 -2.084311
-0.5999821 -4.820908 -2.084839
-0.6077716 -4.820898 -2.085361
-0.6155416 -4.820889 -2.085878
-0.6232921 -4.820881 -2.08639
-0.6310237 -4.820871 -2.086897
-0.6387364 -4.820864 -2.087399
-0.6464305 -4.820854 -2.087896
-0.6541063 -4.820847 -2.088388
-0.6617637 -4.820837 -2.088875
-0.6694029 -4.820829 -2.089357
-0.6770246 -4.82082 -2.089834
-0.6846285 -4.820812 -2.090305
-0.6922148 -4.820803 -2.090773
-0.6997842 -4.820795 -2.091234
-0.7073367 -4.820786 -2.091692
-0.7148722 -4.820778 -2.092144
-0.7223911 -4.82077 -2.092592
-0.7298936 -4.820761 -2.093035
-0.7373798 -4.820753 -2.093473
-0.7448502 -4.820744 -2.093906
-0.7523046 -4.820736 -2.094336
-0.7597434 -4.820728 -2.094759
-0.7671667 -4.820719 -2.095179
-0.7745748 -4.820711 -2.095592
-0.7819675 -4.820704 -2.096003
-0.7893456 -4.820694 -2.096409
-0.7967089 -4.820686 -2.096809
-0.8040577 -4.820679 -2.097206
-0.811392 -4.820669 -2.097597
-0.8187122 -4.820662 -2.097986
-0.8260184 -4.820654 -2.098368
-0.8333107 -4.820644 -2.098747
-0.8405892 -4.820637 -2.099121
-0.8478546 -4.820629 -2.099489
-0.8551062 -4.820621 -2.099855
-0.862345 -4.820612 -2.100216
-0.8680284 -4.825939 -2.099596
-0.8680546 -4.851139 -2.095335
-0.8680813 -4.876881 -2.090979
-0.8681086 -4.903183 -2.086523
-0.8681365 -4.930065 -2.081968
-0.868165 -4.957546 -2.077305
-0.8681942 -4.985649 -2.072535
-0.868224 -5.014391 -2.06765
-0.8682545 -5.0438 -2.062647
-0.8682858 -5.073896 -2.057526
-0.8683177 -5.104708 -2.052277
-0.8683504 -5.136259 -2.046898
-0.868384 -5.168577 -2.041384
-0.8684183 -5.201691 -2.03573
-0.8684536 -5.235634 -2.02993
-0.8684897 -5.270433 -2.023979
-0.8685267 -5.306128 -2.01787
-0.8685647 -5.342749 -2.011599
-0.8686036 -5.380337 -2.005157
-0.8686437 -5.41893 -1.998539
-0.8686848 -5.458569 -1.991737
-0.868727 -5.4993 -1.984743
-0.8687705 -5.541166 -1.977547
-0.8688151 -5.584219 -1.970144
-0.868861 -5.628511 -1.962523
-0.8689083 -5.674095 -1.954674
-0.8689569 -5.721033 -1.946587
-0.8690071 -5.769382 -1.93825
-0.8690587 -5.81921 -1.929655
-0.869112 -5.87059 -1.920786
-0.8691669 -5.923592 -1.911631
-0.8692236 -5.978296 -1.902176
0.3648893 -12.67761 -0.7034855
0.3331906 -12.67761 -0.7044964
0.3015271 -12.67761 -0.7054901
0.2698988 -12.67761 -0.7064648
0.2383044 -12.67761 -0.7074223
0.2067431 -12.67761 -0.7083607
0.1752151 -12.6776 -0.7092819
0.1437189 -12.6776 -0.710186
0.112254 -12.6776 -0.7110729
0.08082007 -12.6776 -0.7119427
0.04941657 -12.6776 -0.7127934
0.01804252 -12.6776 -0.7136269
-0.01330255 -12.6776 -0.7144451
-0.04461912 -12.6776 -0.7152424
-0.07590789 -12.6776 -0.7160244
-0.1071698 -12.6776 -0.7167892
-0.1384052 -12.6776 -0.7175369
-0.1696146 -12.6776 -0.7182655
-0.2007987 -12.6776 -0.7189789
-0.2319584 -12.6776 -0.7196751
-0.2630939 -12.6776 -0.7203522
-0.2942059 -12.6776 -0.721014
-0.3252952 -12.6776 -0.7216587
-0.3563622 -12.6776 -0.7222862
-0.3874078 -12.6776 -0.7228966
-0.4184322 -12.6776 -0.7234898
-0.4494359 -12.6776 -0.7240658
-0.4804202 -12.6776 -0.7246246
-0.5113852 -12.6776 -0.7251663
-0.5423316 -12.6776 -0.7256927
-0.5732598 -12.6776 -0.726202
-0.6041707 -12.6776 -0.7266922
-0.6350646 -12.6776 -0.727169
-0.6659424 -12.6776 -0.7276268
-0.6968045 -12.6776 -0.7280674
-0.7276517 -12.6776 -0.7284927
-0.7584841 -12.6776 -0.7289009
-0.7893028 -12.6776 -0.7292919
-0.8201079 -12.6776 -0.7296658
-0.8509006 -12.6776 -0.7300243
-0.8816808 -12.6776 -0.7303658
-0.9124495 -12.6776 -0.73069
-0.9432073 -12.6776 -0.730999
-0.9739547 -12.6776 -0.7312908
-1.004692 -12.6776 -0.7315655
-1.03542 -12.6776 -0.731823
-1.06614 -12.6776 -0.7320652
-1.096851 -12.6776 -0.7322903
-1.127555 -12.6776 -0.7324982
-1.158252 -12.67759 -0.7326908
-1.188943 -12.67759 -0.7328663
-1.205065 -13.19893 -0.6412506
-1.204891 -14.50325 -0.4118118
-1.211991 -15.83939 -0.1767883
-1.210128 -18.08808 0.218832
-1.216938 -20.65902 0.6711464
-1.212359 -25.37109 1.500244
-1.266159 -26.99997 1.786718
-1.340567 -26.99997 1.786596
-1.41497 -26.99997 1.786566
-1.489376 -26.99997 1.786505
-1.56378 -26.99997 1.786535
-1.618091 -23.45779 1.163305
-1.587471 -12.66293 -0.736227
-1.618087 -12.66288 -0.7361813
-1.648705 -12.66283 -0.7361164
-1.679325 -12.66279 -0.7360363
-1.709949 -12.66274 -0.7359409
-1.740576 -12.66269 -0.7358284
-1.771207 -12.66265 -0.7356987
-1.801843 -12.6626 -0.7355518
-1.832484 -12.66255 -0.7353897
-1.863132 -12.6625 -0.7352123
-1.893786 -12.66246 -0.7350159
-1.924447 -12.66241 -0.7348042
-1.955115 -12.66236 -0.7345753
-1.985792 -12.66232 -0.7343311
-2.016477 -12.66227 -0.7340698
-2.047172 -12.66222 -0.7337914
-2.077877 -12.66217 -0.7334976
-2.108593 -12.66213 -0.7331867
-2.139319 -12.66208 -0.7328587
-2.170057 -12.66203 -0.7325134
-2.200808 -12.66199 -0.7321529
-2.231571 -12.66194 -0.7317753
-2.262348 -12.66189 -0.7313824
-2.293139 -12.66185 -0.7309704
-2.323944 -12.6618 -0.7305431
-2.354764 -12.66175 -0.7300987
-2.385601 -12.6617 -0.7296371
-2.416453 -12.66166 -0.7291603
-2.447323 -12.66161 -0.7286644
-2.47821 -12.66156 -0.7281532
-2.509116 -12.66151 -0.7276249
-2.54004 -12.66147 -0.7270794
-2.570983 -12.66142 -0.7265186
-2.601946 -12.66137 -0.7259388
-2.63293 -12.66133 -0.7253437
-2.663935 -12.66128 -0.7247295
-2.694962 -12.66123 -0.7241001
-2.726011 -12.66118 -0.7234535
-2.757082 -12.66114 -0.7227898
-2.788178 -12.66109 -0.7221088
-2.819298 -12.66104 -0.7214108
-2.850441 -12.66099 -0.7206955
-2.881612 -12.66095 -0.7199612
-2.912807 -12.6609 -0.7192116
-2.944029 -12.66085 -0.7184448
-2.975278 -12.6608 -0.7176609
-3.006555 -12.66076 -0.7168598
-3.037861 -12.66071 -0.7160397
-3.069196 -12.66066 -0.7152042
-3.10056 -12.66061 -0.7143497
-3.131955 -12.66056 -0.7134781
-3.163381 -12.66052 -0.7125893
-3.194838 -12.66047 -0.7116833
-3.226327 -12.66042 -0.7107582
-3.257849 -12.66037 -0.7098179
-3.289405 -12.66033 -0.7088585
-3.320995 -12.66028 -0.70788
-3.35262 -12.66023 -0.7068863
-3.38428 -12.66018 -0.7058735
-3.415977 -12.66013 -0.7048416
-3.44771 -12.66008 -0.7037926
-3.47948 -12.66004 -0.7027264
-3.511288 -12.65999 -0.7016411
-3.543135 -12.65994 -0.7005386
-3.575022 -12.65989 -0.6994171
-3.606948 -12.65984 -0.6982784
-3.638916 -12.65979 -0.6971207
-3.670925 -12.65975 -0.6959438
-3.702975 -12.6597 -0.6947498
-3.735069 -12.65965 -0.6935368
-3.767206 -12.6596 -0.6923065
-3.799387 -12.65955 -0.6910553
-3.831614 -12.6595 -0.6897869
-3.863885 -12.65945 -0.6884995
-3.896203 -12.6594 -0.6871948
-3.928567 -12.65936 -0.6858692
-3.96098 -12.65931 -0.6845264
-3.99344 -12.65926 -0.6831627
-4.655047 -15.15453 -0.2289486
-4.656585 -15.00123 -0.2550297
-4.658087 -14.8514 -0.2804966
-4.659556 -14.70495 -0.3053722
-4.660993 -14.56173 -0.3296776
-4.662399 -14.42165 -0.3534298
-4.663774 -14.28461 -0.3766479
-4.665121 -14.1505 -0.3993492
-4.666439 -14.01923 -0.4215527
-4.667729 -13.8907 -0.4432697
-4.668993 -13.76483 -0.4645214
-4.670232 -13.64153 -0.4853172
-4.671446 -13.52073 -0.5056763
-4.672636 -13.40234 -0.5256081
-4.673802 -13.2863 -0.545126
-4.674946 -13.17253 -0.5642452
-4.676068 -13.06096 -0.5829773
-4.677169 -12.95153 -0.6013317
-4.678249 -12.84417 -0.6193199
-4.679309 -12.73883 -0.6369534
-4.68166 -12.63957 -0.6534805
-4.715462 -12.63999 -0.6515999
-4.749332 -12.64041 -0.6496964
-4.783274 -12.64083 -0.6477699
-4.817286 -12.64125 -0.6458244
-4.85137 -12.64168 -0.643858
-4.885526 -12.6421 -0.6418686
-4.919757 -12.64253 -0.6398582
-4.954062 -12.64295 -0.637825
-4.988441 -12.64338 -0.6357708
-5.022898 -12.64381 -0.6336956
-5.057432 -12.64424 -0.6315956
-5.092044 -12.64466 -0.6294765
-5.126735 -12.6451 -0.6273327
-5.161505 -12.64553 -0.6251678
-5.196356 -12.64596 -0.6229801
-5.23129 -12.64639 -0.6207695
-5.266306 -12.64683 -0.618536
-5.301405 -12.64727 -0.6162796
-5.336591 -12.6477 -0.6140003
-5.371859 -12.64814 -0.6116982
-5.407216 -12.64858 -0.6093712
-5.442659 -12.64902 -0.6070232
-5.478193 -12.64946 -0.6046505
-5.513815 -12.6499 -0.6022549
-5.549527 -12.65035 -0.5998344
-5.585331 -12.65079 -0.5973892
-5.621228 -12.65124 -0.5949211
-5.657218 -12.65169 -0.5924282
-5.693304 -12.65214 -0.5899124
-5.729485 -12.65259 -0.5873699
-5.765761 -12.65304 -0.5848045
-5.802136 -12.65349 -0.5822144
-5.838611 -12.65394 -0.5795975
-5.875184 -12.6544 -0.5769577
-5.91186 -12.65485 -0.5742893
-5.948637 -12.65531 -0.5715981
-5.985518 -12.65577 -0.568882
-6.022503 -12.65623 -0.5661392
-6.059594 -12.65669 -0.5633698
-6.096792 -12.65715 -0.5605755
-6.134097 -12.65762 -0.5577526
-6.171512 -12.65808 -0.5549068
-6.209036 -12.65855 -0.5520325
-6.246672 -12.65902 -0.5491314
-6.284421 -12.65949 -0.5462036
-6.322284 -12.65996 -0.5432472
-6.360261 -12.66043 -0.540266
-6.398355 -12.66091 -0.5372562
-6.436567 -12.66138 -0.5342197
-6.474898 -12.66186 -0.5311527
-6.513349 -12.66234 -0.5280609
-6.55192 -12.66282 -0.5249386
-6.590614 -12.6633 -0.5217896
-6.629433 -12.66379 -0.5186119
-6.668376 -12.66427 -0.5154037
-6.707448 -12.66476 -0.5121689
-6.746646 -12.66525 -0.5089035
-6.785975 -12.66574 -0.5056076
-6.825433 -12.66623 -0.502285
